ply
format ascii 1.0
element vertex 1166
property float x
property float y
property float z
property uchar red
property uchar green
property uchar blue
end_header
-0.271429 0.885714 0.056404 100 160 240
-0.271429 0.900000 0.057297 100 160 240
-0.271429 0.914286 0.058075 100 160 240
-0.271429 0.928571 0.058735 100 160 240
-0.271429 0.942857 0.059278 100 160 240
-0.271429 0.957143 0.059700 100 160 240
-0.271429 0.971429 0.060003 100 160 240
-0.271429 0.985714 0.060185 100 160 240
-0.271429 1.000000 0.060246 100 160 240
-0.257143 -1.000000 0.057824 100 160 240
-0.257143 -0.985714 0.057765 100 160 240
-0.257143 -0.971429 0.057591 100 160 240
-0.257143 -0.957143 0.057300 100 160 240
-0.257143 -0.942857 0.056894 100 160 240
-0.257143 -0.928571 0.056374 100 160 240
-0.257143 -0.914286 0.055740 100 160 240
-0.257143 -0.900000 0.054994 100 160 240
-0.257143 -0.885714 0.054136 100 160 240
-0.257143 -0.871429 0.053170 100 160 240
-0.257143 -0.857143 0.052097 100 160 240
-0.257143 -0.842857 0.050919 100 160 240
-0.257143 -0.828571 0.049639 100 160 240
-0.257143 -0.814286 0.048258 100 160 240
-0.257143 -0.800000 0.046780 100 160 240
-0.257143 -0.785714 0.045208 100 160 240
-0.257143 -0.771429 0.043545 100 160 240
-0.257143 -0.757143 0.041795 100 160 240
-0.257143 -0.742857 0.039960 100 160 240
-0.257143 -0.728571 0.038044 100 160 240
-0.257143 -0.714286 0.036052 100 160 240
-0.257143 -0.700000 0.033988 100 160 240
-0.257143 -0.685714 0.031855 100 160 240
-0.257143 -0.671429 0.029658 100 160 240
-0.257143 -0.657143 0.027401 100 160 240
-0.257143 -0.642857 0.025089 100 160 240
-0.257143 -0.628571 0.022726 100 160 240
-0.257143 -0.614286 0.020318 100 160 240
-0.257143 -0.600000 0.017868 100 160 240
-0.257143 -0.585714 0.015383 100 160 240
-0.257143 -0.571429 0.012867 100 160 240
-0.257143 -0.557143 0.010325 100 160 240
-0.257143 -0.542857 0.007762 100 160 240
-0.257143 -0.528571 0.005183 100 160 240
-0.257143 -0.514286 0.002594 100 160 240
-0.257143 -0.500000 -0.000000 100 160 240
-0.257143 -0.485714 -0.002594 100 160 240
-0.257143 -0.471429 -0.005183 100 160 240
-0.257143 -0.457143 -0.007762 100 160 240
-0.257143 -0.442857 -0.010325 100 160 240
-0.257143 -0.428571 -0.012867 100 160 240
-0.257143 -0.414286 -0.015383 100 160 240
-0.257143 -0.400000 -0.017868 100 160 240
-0.257143 -0.385714 -0.020318 100 160 240
-0.257143 -0.371429 -0.022726 100 160 240
-0.257143 -0.357143 -0.025089 100 160 240
-0.257143 -0.342857 -0.027401 100 160 240
-0.257143 -0.328571 -0.029658 100 160 240
-0.257143 -0.314286 -0.031855 100 160 240
-0.257143 -0.300000 -0.033988 100 160 240
-0.257143 -0.285714 -0.036052 100 160 240
-0.257143 -0.271429 -0.038044 100 160 240
-0.257143 -0.257143 -0.039960 100 160 240
-0.257143 -0.242857 -0.041795 100 160 240
-0.257143 -0.228571 -0.043545 100 160 240
-0.257143 -0.214286 -0.045208 100 160 240
-0.257143 -0.200000 -0.046780 100 160 240
-0.257143 -0.185714 -0.048258 100 160 240
-0.257143 -0.171429 -0.049639 100 160 240
-0.257143 -0.157143 -0.050919 100 160 240
-0.257143 -0.142857 -0.052097 100 160 240
-0.257143 -0.128571 -0.053170 100 160 240
-0.257143 -0.114286 -0.054136 100 160 240
-0.257143 -0.100000 -0.054994 100 160 240
-0.257143 -0.085714 -0.055740 100 160 240
-0.257143 -0.071429 -0.056374 100 160 240
-0.257143 -0.057143 -0.056894 100 160 240
-0.257143 -0.042857 -0.057300 100 160 240
-0.257143 -0.028571 -0.057591 100 160 240
-0.257143 -0.014286 -0.057765 100 160 240
-0.257143 0.000000 -0.057824 100 160 240
-0.257143 0.014286 -0.057765 100 160 240
-0.257143 0.028571 -0.057591 100 160 240
-0.257143 0.042857 -0.057300 100 160 240
-0.257143 0.057143 -0.056894 100 160 240
-0.257143 0.071429 -0.056374 100 160 240
-0.257143 0.085714 -0.055740 100 160 240
-0.257143 0.100000 -0.054994 100 160 240
-0.257143 0.114286 -0.054136 100 160 240
-0.257143 0.128571 -0.053170 100 160 240
-0.257143 0.142857 -0.052097 100 160 240
-0.257143 0.157143 -0.050919 100 160 240
-0.257143 0.171429 -0.049639 100 160 240
-0.257143 0.185714 -0.048258 100 160 240
-0.257143 0.200000 -0.046780 100 160 240
-0.257143 0.214286 -0.045208 100 160 240
-0.257143 0.228571 -0.043545 100 160 240
-0.257143 0.242857 -0.041795 100 160 240
-0.257143 0.257143 -0.039960 100 160 240
-0.257143 0.271429 -0.038044 100 160 240
-0.257143 0.285714 -0.036052 100 160 240
-0.257143 0.300000 -0.033988 100 160 240
-0.257143 0.314286 -0.031855 100 160 240
-0.257143 0.328571 -0.029658 100 160 240
-0.257143 0.342857 -0.027401 100 160 240
-0.257143 0.357143 -0.025089 100 160 240
-0.257143 0.371429 -0.022726 100 160 240
-0.257143 0.385714 -0.020318 100 160 240
-0.257143 0.400000 -0.017868 100 160 240
-0.257143 0.414286 -0.015383 100 160 240
-0.257143 0.428571 -0.012867 100 160 240
-0.257143 0.442857 -0.010325 100 160 240
-0.257143 0.457143 -0.007762 100 160 240
-0.257143 0.471429 -0.005183 100 160 240
-0.257143 0.485714 -0.002594 100 160 240
-0.257143 0.500000 -0.000000 100 160 240
-0.257143 0.514286 0.002594 100 160 240
-0.257143 0.528571 0.005183 100 160 240
-0.257143 0.542857 0.007762 100 160 240
-0.257143 0.557143 0.010325 100 160 240
-0.257143 0.571429 0.012867 100 160 240
-0.257143 0.585714 0.015383 100 160 240
-0.257143 0.600000 0.017868 100 160 240
-0.257143 0.614286 0.020318 100 160 240
-0.257143 0.628571 0.022726 100 160 240
-0.257143 0.642857 0.025089 100 160 240
-0.257143 0.657143 0.027401 100 160 240
-0.257143 0.671429 0.029658 100 160 240
-0.257143 0.685714 0.031855 100 160 240
-0.257143 0.700000 0.033988 100 160 240
-0.257143 0.714286 0.036052 100 160 240
-0.257143 0.728571 0.038044 100 160 240
-0.257143 0.742857 0.039960 100 160 240
-0.257143 0.757143 0.041795 100 160 240
-0.257143 0.771429 0.043545 100 160 240
-0.257143 0.785714 0.045208 100 160 240
-0.257143 0.800000 0.046780 100 160 240
-0.257143 0.814286 0.048258 100 160 240
-0.257143 0.828571 0.049639 100 160 240
-0.257143 0.842857 0.050919 100 160 240
-0.257143 0.857143 0.052097 100 160 240
-0.257143 0.871429 0.053170 100 160 240
-0.257143 0.885714 0.054136 100 160 240
-0.257143 0.900000 0.054994 100 160 240
-0.257143 0.914286 0.055740 100 160 240
-0.257143 0.928571 0.056374 100 160 240
-0.257143 0.942857 0.056894 100 160 240
-0.257143 0.957143 0.057300 100 160 240
-0.257143 0.971429 0.057591 100 160 240
-0.257143 0.985714 0.057765 100 160 240
-0.257143 1.000000 0.057824 100 160 240
-0.242857 -1.000000 0.055285 100 160 240
-0.242857 -0.985714 0.055229 100 160 240
-0.242857 -0.971429 0.055062 100 160 240
-0.242857 -0.957143 0.054785 100 160 240
-0.242857 -0.942857 0.054397 100 160 240
-0.242857 -0.928571 0.053899 100 160 240
-0.242857 -0.914286 0.053293 100 160 240
-0.242857 -0.900000 0.052579 100 160 240
-0.242857 -0.885714 0.051760 100 160 240
-0.242857 -0.871429 0.050836 100 160 240
-0.242857 -0.857143 0.049810 100 160 240
-0.242857 -0.842857 0.048684 100 160 240
-0.242857 -0.828571 0.047459 100 160 240
-0.242857 -0.814286 0.046139 100 160 240
-0.242857 -0.800000 0.044727 100 160 240
-0.242857 -0.785714 0.043224 100 160 240
-0.242857 -0.771429 0.041634 100 160 240
-0.242857 -0.757143 0.039960 100 160 240
-0.242857 -0.742857 0.038205 100 160 240
-0.242857 -0.728571 0.036374 100 160 240
-0.242857 -0.714286 0.034470 100 160 240
-0.242857 -0.700000 0.032496 100 160 240
-0.242857 -0.685714 0.030456 100 160 240
-0.242857 -0.671429 0.028356 100 160 240
-0.242857 -0.657143 0.026198 100 160 240
-0.242857 -0.642857 0.023987 100 160 240
-0.242857 -0.628571 0.021728 100 160 240
-0.242857 -0.614286 0.019426 100 160 240
-0.242857 -0.600000 0.017084 100 160 240
-0.242857 -0.585714 0.014708 100 160 240
-0.242857 -0.571429 0.012302 100 160 240
-0.242857 -0.557143 0.009872 100 160 240
-0.242857 -0.542857 0.007421 100 160 240
-0.242857 -0.528571 0.004956 100 160 240
-0.242857 -0.514286 0.002480 100 160 240
-0.242857 -0.500000 -0.000000 100 160 240
-0.242857 -0.485714 -0.002480 100 160 240
-0.242857 -0.471429 -0.004956 100 160 240
-0.242857 -0.457143 -0.007421 100 160 240
-0.242857 -0.442857 -0.009872 100 160 240
-0.242857 -0.428571 -0.012302 100 160 240
-0.242857 -0.414286 -0.014708 100 160 240
-0.242857 -0.400000 -0.017084 100 160 240
-0.242857 -0.385714 -0.019426 100 160 240
-0.242857 -0.371429 -0.021728 100 160 240
-0.242857 -0.357143 -0.023987 100 160 240
-0.242857 -0.342857 -0.026198 100 160 240
-0.242857 -0.328571 -0.028356 100 160 240
-0.242857 -0.314286 -0.030456 100 160 240
-0.242857 -0.300000 -0.032496 100 160 240
-0.242857 -0.285714 -0.034470 100 160 240
-0.242857 -0.271429 -0.036374 100 160 240
-0.242857 -0.257143 -0.038205 100 160 240
-0.242857 -0.242857 -0.039960 100 160 240
-0.242857 -0.228571 -0.041634 100 160 240
-0.242857 -0.214286 -0.043224 100 160 240
-0.242857 -0.200000 -0.044727 100 160 240
-0.242857 -0.185714 -0.046139 100 160 240
-0.242857 -0.171429 -0.047459 100 160 240
-0.242857 -0.157143 -0.048684 100 160 240
-0.242857 -0.142857 -0.049810 100 160 240
-0.242857 -0.128571 -0.050836 100 160 240
-0.242857 -0.114286 -0.051760 100 160 240
-0.242857 -0.100000 -0.052579 100 160 240
-0.242857 -0.085714 -0.053293 100 160 240
-0.242857 -0.071429 -0.053899 100 160 240
-0.242857 -0.057143 -0.054397 100 160 240
-0.242857 -0.042857 -0.054785 100 160 240
-0.242857 -0.028571 -0.055062 100 160 240
-0.242857 -0.014286 -0.055229 100 160 240
-0.242857 0.000000 -0.055285 100 160 240
-0.242857 0.014286 -0.055229 100 160 240
-0.242857 0.028571 -0.055062 100 160 240
-0.242857 0.042857 -0.054785 100 160 240
-0.242857 0.057143 -0.054397 100 160 240
-0.242857 0.071429 -0.053899 100 160 240
-0.242857 0.085714 -0.053293 100 160 240
-0.242857 0.100000 -0.052579 100 160 240
-0.242857 0.114286 -0.051760 100 160 240
-0.242857 0.128571 -0.050836 100 160 240
-0.242857 0.142857 -0.049810 100 160 240
-0.242857 0.157143 -0.048684 100 160 240
-0.242857 0.171429 -0.047459 100 160 240
-0.242857 0.185714 -0.046139 100 160 240
-0.242857 0.200000 -0.044727 100 160 240
-0.242857 0.214286 -0.043224 100 160 240
-0.242857 0.228571 -0.041634 100 160 240
-0.242857 0.242857 -0.039960 100 160 240
-0.242857 0.257143 -0.038205 100 160 240
-0.242857 0.271429 -0.036374 100 160 240
-0.242857 0.285714 -0.034470 100 160 240
-0.242857 0.300000 -0.032496 100 160 240
-0.242857 0.314286 -0.030456 100 160 240
-0.242857 0.328571 -0.028356 100 160 240
-0.242857 0.342857 -0.026198 100 160 240
-0.242857 0.357143 -0.023987 100 160 240
-0.242857 0.371429 -0.021728 100 160 240
-0.242857 0.385714 -0.019426 100 160 240
-0.242857 0.400000 -0.017084 100 160 240
-0.242857 0.414286 -0.014708 100 160 240
-0.242857 0.428571 -0.012302 100 160 240
-0.242857 0.442857 -0.009872 100 160 240
-0.242857 0.457143 -0.007421 100 160 240
-0.242857 0.471429 -0.004956 100 160 240
-0.242857 0.485714 -0.002480 100 160 240
-0.242857 0.500000 -0.000000 100 160 240
-0.242857 0.514286 0.002480 100 160 240
-0.242857 0.528571 0.004956 100 160 240
-0.242857 0.542857 0.007421 100 160 240
-0.242857 0.557143 0.009872 100 160 240
-0.242857 0.571429 0.012302 100 160 240
-0.242857 0.585714 0.014708 100 160 240
-0.242857 0.600000 0.017084 100 160 240
-0.242857 0.614286 0.019426 100 160 240
-0.242857 0.628571 0.021728 100 160 240
-0.242857 0.642857 0.023987 100 160 240
-0.242857 0.657143 0.026198 100 160 240
-0.242857 0.671429 0.028356 100 160 240
-0.242857 0.685714 0.030456 100 160 240
-0.242857 0.700000 0.032496 100 160 240
-0.242857 0.714286 0.034470 100 160 240
-0.242857 0.728571 0.036374 100 160 240
-0.242857 0.742857 0.038205 100 160 240
-0.242857 0.757143 0.039960 100 160 240
-0.242857 0.771429 0.041634 100 160 240
-0.242857 0.785714 0.043224 100 160 240
-0.242857 0.800000 0.044727 100 160 240
-0.242857 0.814286 0.046139 100 160 240
-0.242857 0.828571 0.047459 100 160 240
-0.242857 0.842857 0.048684 100 160 240
-0.242857 0.857143 0.049810 100 160 240
-0.242857 0.871429 0.050836 100 160 240
-0.242857 0.885714 0.051760 100 160 240
-0.242857 0.900000 0.052579 100 160 240
-0.242857 0.914286 0.053293 100 160 240
-0.242857 0.928571 0.053899 100 160 240
-0.242857 0.942857 0.054397 100 160 240
-0.242857 0.957143 0.054785 100 160 240
-0.242857 0.971429 0.055062 100 160 240
-0.242857 0.985714 0.055229 100 160 240
-0.242857 1.000000 0.055285 100 160 240
-0.228571 -1.000000 0.052635 100 160 240
-0.228571 -0.985714 0.052582 100 160 240
-0.228571 -0.971429 0.052423 100 160 240
-0.228571 -0.957143 0.052159 100 160 240
-0.228571 -0.942857 0.051789 100 160 240
-0.228571 -0.928571 0.051315 100 160 240
-0.228571 -0.914286 0.050738 100 160 240
-0.228571 -0.900000 0.050059 100 160 240
-0.228571 -0.885714 0.049279 100 160 240
-0.228571 -0.871429 0.048399 100 160 240
-0.228571 -0.857143 0.047423 100 160 240
-0.228571 -0.842857 0.046350 100 160 240
-0.228571 -0.828571 0.045185 100 160 240
-0.228571 -0.814286 0.043928 100 160 240
-0.228571 -0.800000 0.042583 100 160 240
-0.228571 -0.785714 0.041152 100 160 240
-0.228571 -0.771429 0.039638 100 160 240
-0.228571 -0.757143 0.038044 100 160 240
-0.228571 -0.742857 0.036374 100 160 240
-0.228571 -0.728571 0.034631 100 160 240
-0.228571 -0.714286 0.032817 100 160 240
-0.228571 -0.700000 0.030938 100 160 240
-0.228571 -0.685714 0.028997 100 160 240
-0.228571 -0.671429 0.026997 100 160 240
-0.228571 -0.657143 0.024942 100 160 240
-0.228571 -0.642857 0.022838 100 160 240
-0.228571 -0.628571 0.020687 100 160 240
-0.228571 -0.614286 0.018495 100 160 240
-0.228571 -0.600000 0.016265 100 160 240
-0.228571 -0.585714 0.014003 100 160 240
-0.228571 -0.571429 0.011712 100 160 240
-0.228571 -0.557143 0.009398 100 160 240
-0.228571 -0.542857 0.007065 100 160 240
-0.228571 -0.528571 0.004718 100 160 240
-0.228571 -0.514286 0.002361 100 160 240
-0.228571 -0.500000 -0.000000 100 160 240
-0.228571 -0.485714 -0.002361 100 160 240
-0.228571 -0.471429 -0.004718 100 160 240
-0.228571 -0.457143 -0.007065 100 160 240
-0.228571 -0.442857 -0.009398 100 160 240
-0.228571 -0.428571 -0.011712 100 160 240
-0.228571 -0.414286 -0.014003 100 160 240
-0.228571 -0.400000 -0.016265 100 160 240
-0.228571 -0.385714 -0.018495 100 160 240
-0.228571 -0.371429 -0.020687 100 160 240
-0.228571 -0.357143 -0.022838 100 160 240
-0.228571 -0.342857 -0.024942 100 160 240
-0.228571 -0.328571 -0.026997 100 160 240
-0.228571 -0.314286 -0.028997 100 160 240
-0.228571 -0.300000 -0.030938 100 160 240
-0.228571 -0.285714 -0.032817 100 160 240
-0.228571 -0.271429 -0.034631 100 160 240
-0.228571 -0.257143 -0.036374 100 160 240
-0.228571 -0.242857 -0.038044 100 160 240
-0.228571 -0.228571 -0.039638 100 160 240
-0.228571 -0.214286 -0.041152 100 160 240
-0.228571 -0.200000 -0.042583 100 160 240
-0.228571 -0.185714 -0.043928 100 160 240
-0.228571 -0.171429 -0.045185 100 160 240
-0.228571 -0.157143 -0.046350 100 160 240
-0.228571 -0.142857 -0.047423 100 160 240
-0.228571 -0.128571 -0.048399 100 160 240
-0.228571 -0.114286 -0.049279 100 160 240
-0.228571 -0.100000 -0.050059 100 160 240
-0.228571 -0.085714 -0.050738 100 160 240
-0.228571 -0.071429 -0.051315 100 160 240
-0.228571 -0.057143 -0.051789 100 160 240
-0.228571 -0.042857 -0.052159 100 160 240
-0.228571 -0.028571 -0.052423 100 160 240
-0.228571 -0.014286 -0.052582 100 160 240
-0.228571 0.000000 -0.052635 100 160 240
-0.228571 0.014286 -0.052582 100 160 240
-0.228571 0.028571 -0.052423 100 160 240
-0.228571 0.042857 -0.052159 100 160 240
-0.228571 0.057143 -0.051789 100 160 240
-0.228571 0.071429 -0.051315 100 160 240
-0.228571 0.085714 -0.050738 100 160 240
-0.228571 0.100000 -0.050059 100 160 240
-0.228571 0.114286 -0.049279 100 160 240
-0.228571 0.128571 -0.048399 100 160 240
-0.228571 0.142857 -0.047423 100 160 240
-0.228571 0.157143 -0.046350 100 160 240
-0.228571 0.171429 -0.045185 100 160 240
-0.228571 0.185714 -0.043928 100 160 240
-0.228571 0.200000 -0.042583 100 160 240
-0.228571 0.214286 -0.041152 100 160 240
-0.228571 0.228571 -0.039638 100 160 240
-0.228571 0.242857 -0.038044 100 160 240
-0.228571 0.257143 -0.036374 100 160 240
-0.228571 0.271429 -0.034631 100 160 240
-0.228571 0.285714 -0.032817 100 160 240
-0.228571 0.300000 -0.030938 100 160 240
-0.228571 0.314286 -0.028997 100 160 240
-0.228571 0.328571 -0.026997 100 160 240
-0.228571 0.342857 -0.024942 100 160 240
-0.228571 0.357143 -0.022838 100 160 240
-0.228571 0.371429 -0.020687 100 160 240
-0.228571 0.385714 -0.018495 100 160 240
-0.228571 0.400000 -0.016265 100 160 240
-0.228571 0.414286 -0.014003 100 160 240
-0.228571 0.428571 -0.011712 100 160 240
-0.228571 0.442857 -0.009398 100 160 240
-0.228571 0.457143 -0.007065 100 160 240
-0.228571 0.471429 -0.004718 100 160 240
-0.228571 0.485714 -0.002361 100 160 240
-0.228571 0.500000 -0.000000 100 160 240
-0.228571 0.514286 0.002361 100 160 240
-0.228571 0.528571 0.004718 100 160 240
-0.228571 0.542857 0.007065 100 160 240
-0.228571 0.557143 0.009398 100 160 240
-0.228571 0.571429 0.011712 100 160 240
-0.228571 0.585714 0.014003 100 160 240
-0.228571 0.600000 0.016265 100 160 240
-0.228571 0.614286 0.018495 100 160 240
-0.228571 0.628571 0.020687 100 160 240
-0.228571 0.642857 0.022838 100 160 240
-0.228571 0.657143 0.024942 100 160 240
-0.228571 0.671429 0.026997 100 160 240
-0.228571 0.685714 0.028997 100 160 240
-0.228571 0.700000 0.030938 100 160 240
-0.228571 0.714286 0.032817 100 160 240
-0.228571 0.728571 0.034631 100 160 240
-0.228571 0.742857 0.036374 100 160 240
-0.228571 0.757143 0.038044 100 160 240
-0.228571 0.771429 0.039638 100 160 240
-0.228571 0.785714 0.041152 100 160 240
-0.228571 0.800000 0.042583 100 160 240
-0.228571 0.814286 0.043928 100 160 240
-0.228571 0.828571 0.045185 100 160 240
-0.228571 0.842857 0.046350 100 160 240
-0.228571 0.857143 0.047423 100 160 240
-0.228571 0.871429 0.048399 100 160 240
-0.228571 0.885714 0.049279 100 160 240
-0.228571 0.900000 0.050059 100 160 240
-0.228571 0.914286 0.050738 100 160 240
-0.228571 0.928571 0.051315 100 160 240
-0.228571 0.942857 0.051789 100 160 240
-0.228571 0.957143 0.052159 100 160 240
-0.228571 0.971429 0.052423 100 160 240
-0.228571 0.985714 0.052582 100 160 240
-0.228571 1.000000 0.052635 100 160 240
-0.214286 -1.000000 0.049879 100 160 240
-0.214286 -0.985714 0.049829 100 160 240
-0.214286 -0.971429 0.049678 100 160 240
-0.214286 -0.957143 0.049428 100 160 240
-0.214286 -0.942857 0.049078 100 160 240
-0.214286 -0.928571 0.048629 100 160 240
-0.214286 -0.914286 0.048082 100 160 240
-0.214286 -0.900000 0.047438 100 160 240
-0.214286 -0.885714 0.046699 100 160 240
-0.214286 -0.871429 0.045865 100 160 240
-0.214286 -0.857143 0.044940 100 160 240
-0.214286 -0.842857 0.043923 100 160 240
-0.214286 -0.828571 0.042819 100 160 240
-0.214286 -0.814286 0.041628 100 160 240
-0.214286 -0.800000 0.040353 100 160 240
-0.214286 -0.785714 0.038997 100 160 240
-0.214286 -0.771429 0.037563 100 160 240
-0.214286 -0.757143 0.036052 100 160 240
-0.214286 -0.742857 0.034470 100 160 240
-0.214286 -0.728571 0.032817 100 160 240
-0.214286 -0.714286 0.031099 100 160 240
-0.214286 -0.700000 0.029318 100 160 240
-0.214286 -0.685714 0.027478 100 160 240
-0.214286 -0.671429 0.025583 100 160 240
-0.214286 -0.657143 0.023636 100 160 240
-0.214286 -0.642857 0.021642 100 160 240
-0.214286 -0.628571 0.019604 100 160 240
-0.214286 -0.614286 0.017526 100 160 240
-0.214286 -0.600000 0.015414 100 160 240
-0.214286 -0.585714 0.013270 100 160 240
-0.214286 -0.571429 0.011099 100 160 240
-0.214286 -0.557143 0.008906 100 160 240
-0.214286 -0.542857 0.006695 100 160 240
-0.214286 -0.528571 0.004471 100 160 240
-0.214286 -0.514286 0.002238 100 160 240
-0.214286 -0.500000 -0.000000 100 160 240
-0.214286 -0.485714 -0.002238 100 160 240
-0.214286 -0.471429 -0.004471 100 160 240
-0.214286 -0.457143 -0.006695 100 160 240
-0.214286 -0.442857 -0.008906 100 160 240
-0.214286 -0.428571 -0.011099 100 160 240
-0.214286 -0.414286 -0.013270 100 160 240
-0.214286 -0.400000 -0.015414 100 160 240
-0.214286 -0.385714 -0.017526 100 160 240
-0.214286 -0.371429 -0.019604 100 160 240
-0.214286 -0.357143 -0.021642 100 160 240
-0.214286 -0.342857 -0.023636 100 160 240
-0.214286 -0.328571 -0.025583 100 160 240
-0.214286 -0.314286 -0.027478 100 160 240
-0.214286 -0.300000 -0.029318 100 160 240
-0.214286 -0.285714 -0.031099 100 160 240
-0.214286 -0.271429 -0.032817 100 160 240
-0.214286 -0.257143 -0.034470 100 160 240
-0.214286 -0.242857 -0.036052 100 160 240
-0.214286 -0.228571 -0.037563 100 160 240
-0.214286 -0.214286 -0.038997 100 160 240
-0.214286 -0.200000 -0.040353 100 160 240
-0.214286 -0.185714 -0.041628 100 160 240
-0.214286 -0.171429 -0.042819 100 160 240
-0.214286 -0.157143 -0.043923 100 160 240
-0.214286 -0.142857 -0.044940 100 160 240
-0.214286 -0.128571 -0.045865 100 160 240
-0.214286 -0.114286 -0.046699 100 160 240
-0.214286 -0.100000 -0.047438 100 160 240
-0.214286 -0.085714 -0.048082 100 160 240
-0.214286 -0.071429 -0.048629 100 160 240
-0.214286 -0.057143 -0.049078 100 160 240
-0.214286 -0.042857 -0.049428 100 160 240
-0.214286 -0.028571 -0.049678 100 160 240
-0.214286 -0.014286 -0.049829 100 160 240
-0.214286 0.000000 -0.049879 100 160 240
-0.214286 0.014286 -0.049829 100 160 240
-0.214286 0.028571 -0.049678 100 160 240
-0.214286 0.042857 -0.049428 100 160 240
-0.214286 0.057143 -0.049078 100 160 240
-0.214286 0.071429 -0.048629 100 160 240
-0.214286 0.085714 -0.048082 100 160 240
-0.214286 0.100000 -0.047438 100 160 240
-0.214286 0.114286 -0.046699 100 160 240
-0.214286 0.128571 -0.045865 100 160 240
-0.214286 0.142857 -0.044940 100 160 240
-0.214286 0.157143 -0.043923 100 160 240
-0.214286 0.171429 -0.042819 100 160 240
-0.214286 0.185714 -0.041628 100 160 240
-0.214286 0.200000 -0.040353 100 160 240
-0.214286 0.214286 -0.038997 100 160 240
-0.214286 0.228571 -0.037563 100 160 240
-0.214286 0.242857 -0.036052 100 160 240
-0.214286 0.257143 -0.034470 100 160 240
-0.214286 0.271429 -0.032817 100 160 240
-0.214286 0.285714 -0.031099 100 160 240
-0.214286 0.300000 -0.029318 100 160 240
-0.214286 0.314286 -0.027478 100 160 240
-0.214286 0.328571 -0.025583 100 160 240
-0.214286 0.342857 -0.023636 100 160 240
-0.214286 0.357143 -0.021642 100 160 240
-0.214286 0.371429 -0.019604 100 160 240
-0.214286 0.385714 -0.017526 100 160 240
-0.214286 0.400000 -0.015414 100 160 240
-0.214286 0.414286 -0.013270 100 160 240
-0.214286 0.428571 -0.011099 100 160 240
-0.214286 0.442857 -0.008906 100 160 240
-0.214286 0.457143 -0.006695 100 160 240
-0.214286 0.471429 -0.004471 100 160 240
-0.214286 0.485714 -0.002238 100 160 240
-0.214286 0.500000 -0.000000 100 160 240
-0.214286 0.514286 0.002238 100 160 240
-0.214286 0.528571 0.004471 100 160 240
-0.214286 0.542857 0.006695 100 160 240
-0.214286 0.557143 0.008906 100 160 240
-0.214286 0.571429 0.011099 100 160 240
-0.214286 0.585714 0.013270 100 160 240
-0.214286 0.600000 0.015414 100 160 240
-0.214286 0.614286 0.017526 100 160 240
-0.214286 0.628571 0.019604 100 160 240
-0.214286 0.642857 0.021642 100 160 240
-0.214286 0.657143 0.023636 100 160 240
-0.214286 0.671429 0.025583 100 160 240
-0.214286 0.685714 0.027478 100 160 240
-0.214286 0.700000 0.029318 100 160 240
-0.214286 0.714286 0.031099 100 160 240
-0.214286 0.728571 0.032817 100 160 240
-0.214286 0.742857 0.034470 100 160 240
-0.214286 0.757143 0.036052 100 160 240
-0.214286 0.771429 0.037563 100 160 240
-0.214286 0.785714 0.038997 100 160 240
-0.214286 0.800000 0.040353 100 160 240
-0.214286 0.814286 0.041628 100 160 240
-0.214286 0.828571 0.042819 100 160 240
-0.214286 0.842857 0.043923 100 160 240
-0.214286 0.857143 0.044940 100 160 240
-0.214286 0.871429 0.045865 100 160 240
-0.214286 0.885714 0.046699 100 160 240
-0.214286 0.900000 0.047438 100 160 240
-0.214286 0.914286 0.048082 100 160 240
-0.214286 0.928571 0.048629 100 160 240
-0.214286 0.942857 0.049078 100 160 240
-0.214286 0.957143 0.049428 100 160 240
-0.214286 0.971429 0.049678 100 160 240
-0.214286 0.985714 0.049829 100 160 240
-0.214286 1.000000 0.049879 100 160 240
-0.200000 -1.000000 0.047023 100 160 240
-0.200000 -0.985714 0.046975 100 160 240
-0.200000 -0.971429 0.046834 100 160 240
-0.200000 -0.957143 0.046597 100 160 240
-0.200000 -0.942857 0.046267 100 160 240
-0.200000 -0.928571 0.045844 100 160 240
-0.200000 -0.914286 0.045328 100 160 240
-0.200000 -0.900000 0.044721 100 160 240
-0.200000 -0.885714 0.044024 100 160 240
-0.200000 -0.871429 0.043239 100 160 240
-0.200000 -0.857143 0.042366 100 160 240
-0.200000 -0.842857 0.041408 100 160 240
-0.200000 -0.828571 0.040367 100 160 240
-0.200000 -0.814286 0.039244 100 160 240
-0.200000 -0.800000 0.038042 100 160 240
-0.200000 -0.785714 0.036764 100 160 240
-0.200000 -0.771429 0.035412 100 160 240
-0.200000 -0.757143 0.033988 100 160 240
-0.200000 -0.742857 0.032496 100 160 240
-0.200000 -0.728571 0.030938 100 160 240
-0.200000 -0.714286 0.029318 100 160 240
-0.200000 -0.700000 0.027639 100 160 240
-0.200000 -0.685714 0.025905 100 160 240
-0.200000 -0.671429 0.024118 100 160 240
-0.200000 -0.657143 0.022283 100 160 240
-0.200000 -0.642857 0.020402 100 160 240
-0.200000 -0.628571 0.018481 100 160 240
-0.200000 -0.614286 0.016523 100 160 240
-0.200000 -0.600000 0.014531 100 160 240
-0.200000 -0.585714 0.012510 100 160 240
-0.200000 -0.571429 0.010464 100 160 240
-0.200000 -0.557143 0.008396 100 160 240
-0.200000 -0.542857 0.006312 100 160 240
-0.200000 -0.528571 0.004215 100 160 240
-0.200000 -0.514286 0.002110 100 160 240
-0.200000 -0.500000 -0.000000 100 160 240
-0.200000 -0.485714 -0.002110 100 160 240
-0.200000 -0.471429 -0.004215 100 160 240
-0.200000 -0.457143 -0.006312 100 160 240
-0.200000 -0.442857 -0.008396 100 160 240
-0.200000 -0.428571 -0.010464 100 160 240
-0.200000 -0.414286 -0.012510 100 160 240
-0.200000 -0.400000 -0.014531 100 160 240
-0.200000 -0.385714 -0.016523 100 160 240
-0.200000 -0.371429 -0.018481 100 160 240
-0.200000 -0.357143 -0.020402 100 160 240
-0.200000 -0.342857 -0.022283 100 160 240
-0.200000 -0.328571 -0.024118 100 160 240
-0.200000 -0.314286 -0.025905 100 160 240
-0.200000 -0.300000 -0.027639 100 160 240
-0.200000 -0.285714 -0.029318 100 160 240
-0.200000 -0.271429 -0.030938 100 160 240
-0.200000 -0.257143 -0.032496 100 160 240
-0.200000 -0.242857 -0.033988 100 160 240
-0.200000 -0.228571 -0.035412 100 160 240
-0.200000 -0.214286 -0.036764 100 160 240
-0.200000 -0.200000 -0.038042 100 160 240
-0.200000 -0.185714 -0.039244 100 160 240
-0.200000 -0.171429 -0.040367 100 160 240
-0.200000 -0.157143 -0.041408 100 160 240
-0.200000 -0.142857 -0.042366 100 160 240
-0.200000 -0.128571 -0.043239 100 160 240
-0.200000 -0.114286 -0.044024 100 160 240
-0.200000 -0.100000 -0.044721 100 160 240
-0.200000 -0.085714 -0.045328 100 160 240
-0.200000 -0.071429 -0.045844 100 160 240
-0.200000 -0.057143 -0.046267 100 160 240
-0.200000 -0.042857 -0.046597 100 160 240
-0.200000 -0.028571 -0.046834 100 160 240
-0.200000 -0.014286 -0.046975 100 160 240
-0.200000 0.000000 -0.047023 100 160 240
-0.200000 0.014286 -0.046975 100 160 240
-0.200000 0.028571 -0.046834 100 160 240
-0.200000 0.042857 -0.046597 100 160 240
-0.200000 0.057143 -0.046267 100 160 240
-0.200000 0.071429 -0.045844 100 160 240
-0.200000 0.085714 -0.045328 100 160 240
-0.200000 0.100000 -0.044721 100 160 240
-0.200000 0.114286 -0.044024 100 160 240
-0.200000 0.128571 -0.043239 100 160 240
-0.200000 0.142857 -0.042366 100 160 240
-0.200000 0.157143 -0.041408 100 160 240
-0.200000 0.171429 -0.040367 100 160 240
-0.200000 0.185714 -0.039244 100 160 240
-0.200000 0.200000 -0.038042 100 160 240
-0.200000 0.214286 -0.036764 100 160 240
-0.200000 0.228571 -0.035412 100 160 240
-0.200000 0.242857 -0.033988 100 160 240
-0.200000 0.257143 -0.032496 100 160 240
-0.200000 0.271429 -0.030938 100 160 240
-0.200000 0.285714 -0.029318 100 160 240
-0.200000 0.300000 -0.027639 100 160 240
-0.200000 0.314286 -0.025905 100 160 240
-0.200000 0.328571 -0.024118 100 160 240
-0.200000 0.342857 -0.022283 100 160 240
-0.200000 0.357143 -0.020402 100 160 240
-0.200000 0.371429 -0.018481 100 160 240
-0.200000 0.385714 -0.016523 100 160 240
-0.200000 0.400000 -0.014531 100 160 240
-0.200000 0.414286 -0.012510 100 160 240
-0.200000 0.428571 -0.010464 100 160 240
-0.200000 0.442857 -0.008396 100 160 240
-0.200000 0.457143 -0.006312 100 160 240
-0.200000 0.471429 -0.004215 100 160 240
-0.200000 0.485714 -0.002110 100 160 240
-0.200000 0.500000 -0.000000 100 160 240
-0.200000 0.514286 0.002110 100 160 240
-0.200000 0.528571 0.004215 100 160 240
-0.200000 0.542857 0.006312 100 160 240
-0.200000 0.557143 0.008396 100 160 240
-0.200000 0.571429 0.010464 100 160 240
-0.200000 0.585714 0.012510 100 160 240
-0.200000 0.600000 0.014531 100 160 240
-0.200000 0.614286 0.016523 100 160 240
-0.200000 0.628571 0.018481 100 160 240
-0.200000 0.642857 0.020402 100 160 240
-0.200000 0.657143 0.022283 100 160 240
-0.200000 0.671429 0.024118 100 160 240
-0.200000 0.685714 0.025905 100 160 240
-0.200000 0.700000 0.027639 100 160 240
-0.200000 0.714286 0.029318 100 160 240
-0.200000 0.728571 0.030938 100 160 240
-0.200000 0.742857 0.032496 100 160 240
-0.200000 0.757143 0.033988 100 160 240
-0.200000 0.771429 0.035412 100 160 240
-0.200000 0.785714 0.036764 100 160 240
-0.200000 0.800000 0.038042 100 160 240
-0.200000 0.814286 0.039244 100 160 240
-0.200000 0.828571 0.040367 100 160 240
-0.200000 0.842857 0.041408 100 160 240
-0.200000 0.857143 0.042366 100 160 240
-0.200000 0.871429 0.043239 100 160 240
-0.200000 0.885714 0.044024 100 160 240
-0.200000 0.900000 0.044721 100 160 240
-0.200000 0.914286 0.045328 100 160 240
-0.200000 0.928571 0.045844 100 160 240
-0.200000 0.942857 0.046267 100 160 240
-0.200000 0.957143 0.046597 100 160 240
-0.200000 0.971429 0.046834 100 160 240
-0.200000 0.985714 0.046975 100 160 240
-0.200000 1.000000 0.047023 100 160 240
-0.185714 -1.000000 0.044072 100 160 240
-0.185714 -0.985714 0.044027 100 160 240
-0.185714 -0.971429 0.043894 100 160 240
-0.185714 -0.957143 0.043673 100 160 240
-0.185714 -0.942857 0.043364 100 160 240
-0.185714 -0.928571 0.042967 100 160 240
-0.185714 -0.914286 0.042484 100 160 240
-0.185714 -0.900000 0.041915 100 160 240
-0.185714 -0.885714 0.041262 100 160 240
-0.185714 -0.871429 0.040525 100 160 240
-0.185714 -0.857143 0.039707 100 160 240
-0.185714 -0.842857 0.038809 100 160 240
-0.185714 -0.828571 0.037833 100 160 240
-0.185714 -0.814286 0.036781 100 160 240
-0.185714 -0.800000 0.035655 100 160 240
-0.185714 -0.785714 0.034457 100 160 240
-0.185714 -0.771429 0.033189 100 160 240
-0.185714 -0.757143 0.031855 100 160 240
-0.185714 -0.742857 0.030456 100 160 240
-0.185714 -0.728571 0.028997 100 160 240
-0.185714 -0.714286 0.027478 100 160 240
-0.185714 -0.700000 0.025905 100 160 240
-0.185714 -0.685714 0.024279 100 160 240
-0.185714 -0.671429 0.022604 100 160 240
-0.185714 -0.657143 0.020884 100 160 240
-0.185714 -0.642857 0.019122 100 160 240
-0.185714 -0.628571 0.017321 100 160 240
-0.185714 -0.614286 0.015486 100 160 240
-0.185714 -0.600000 0.013619 100 160 240
-0.185714 -0.585714 0.011725 100 160 240
-0.185714 -0.571429 0.009807 100 160 240
-0.185714 -0.557143 0.007869 100 160 240
-0.185714 -0.542857 0.005916 100 160 240
-0.185714 -0.528571 0.003951 100 160 240
-0.185714 -0.514286 0.001977 100 160 240
-0.185714 -0.500000 -0.000000 100 160 240
-0.185714 -0.485714 -0.001977 100 160 240
-0.185714 -0.471429 -0.003951 100 160 240
-0.185714 -0.457143 -0.005916 100 160 240
-0.185714 -0.442857 -0.007869 100 160 240
-0.185714 -0.428571 -0.009807 100 160 240
-0.185714 -0.414286 -0.011725 100 160 240
-0.185714 -0.400000 -0.013619 100 160 240
-0.185714 -0.385714 -0.015486 100 160 240
-0.185714 -0.371429 -0.017321 100 160 240
-0.185714 -0.357143 -0.019122 100 160 240
-0.185714 -0.342857 -0.020884 100 160 240
-0.185714 -0.328571 -0.022604 100 160 240
-0.185714 -0.314286 -0.024279 100 160 240
-0.185714 -0.300000 -0.025905 100 160 240
-0.185714 -0.285714 -0.027478 100 160 240
-0.185714 -0.271429 -0.028997 100 160 240
-0.185714 -0.257143 -0.030456 100 160 240
-0.185714 -0.242857 -0.031855 100 160 240
-0.185714 -0.228571 -0.033189 100 160 240
-0.185714 -0.214286 -0.034457 100 160 240
-0.185714 -0.200000 -0.035655 100 160 240
-0.185714 -0.185714 -0.036781 100 160 240
-0.185714 -0.171429 -0.037833 100 160 240
-0.185714 -0.157143 -0.038809 100 160 240
-0.185714 -0.142857 -0.039707 100 160 240
-0.185714 -0.128571 -0.040525 100 160 240
-0.185714 -0.114286 -0.041262 100 160 240
-0.185714 -0.100000 -0.041915 100 160 240
-0.185714 -0.085714 -0.042484 100 160 240
-0.185714 -0.071429 -0.042967 100 160 240
-0.185714 -0.057143 -0.043364 100 160 240
-0.185714 -0.042857 -0.043673 100 160 240
-0.185714 -0.028571 -0.043894 100 160 240
-0.185714 -0.014286 -0.044027 100 160 240
-0.185714 0.000000 -0.044072 100 160 240
-0.185714 0.014286 -0.044027 100 160 240
-0.185714 0.028571 -0.043894 100 160 240
-0.185714 0.042857 -0.043673 100 160 240
-0.185714 0.057143 -0.043364 100 160 240
-0.185714 0.071429 -0.042967 100 160 240
-0.185714 0.085714 -0.042484 100 160 240
-0.185714 0.100000 -0.041915 100 160 240
-0.185714 0.114286 -0.041262 100 160 240
-0.185714 0.128571 -0.040525 100 160 240
-0.185714 0.142857 -0.039707 100 160 240
-0.185714 0.157143 -0.038809 100 160 240
-0.185714 0.171429 -0.037833 100 160 240
-0.185714 0.185714 -0.036781 100 160 240
-0.185714 0.200000 -0.035655 100 160 240
-0.185714 0.214286 -0.034457 100 160 240
-0.185714 0.228571 -0.033189 100 160 240
-0.185714 0.242857 -0.031855 100 160 240
-0.185714 0.257143 -0.030456 100 160 240
-0.185714 0.271429 -0.028997 100 160 240
-0.185714 0.285714 -0.027478 100 160 240
-0.185714 0.300000 -0.025905 100 160 240
-0.185714 0.314286 -0.024279 100 160 240
-0.185714 0.328571 -0.022604 100 160 240
-0.185714 0.342857 -0.020884 100 160 240
-0.185714 0.357143 -0.019122 100 160 240
-0.185714 0.371429 -0.017321 100 160 240
-0.185714 0.385714 -0.015486 100 160 240
-0.185714 0.400000 -0.013619 100 160 240
-0.185714 0.414286 -0.011725 100 160 240
-0.185714 0.428571 -0.009807 100 160 240
-0.185714 0.442857 -0.007869 100 160 240
-0.185714 0.457143 -0.005916 100 160 240
-0.185714 0.471429 -0.003951 100 160 240
-0.185714 0.485714 -0.001977 100 160 240
-0.185714 0.500000 -0.000000 100 160 240
-0.185714 0.514286 0.001977 100 160 240
-0.185714 0.528571 0.003951 100 160 240
-0.185714 0.542857 0.005916 100 160 240
-0.185714 0.557143 0.007869 100 160 240
-0.185714 0.571429 0.009807 100 160 240
-0.185714 0.585714 0.011725 100 160 240
-0.185714 0.600000 0.013619 100 160 240
-0.185714 0.614286 0.015486 100 160 240
-0.185714 0.628571 0.017321 100 160 240
-0.185714 0.642857 0.019122 100 160 240
-0.185714 0.657143 0.020884 100 160 240
-0.185714 0.671429 0.022604 100 160 240
-0.185714 0.685714 0.024279 100 160 240
-0.185714 0.700000 0.025905 100 160 240
-0.185714 0.714286 0.027478 100 160 240
-0.185714 0.728571 0.028997 100 160 240
-0.185714 0.742857 0.030456 100 160 240
-0.185714 0.757143 0.031855 100 160 240
-0.185714 0.771429 0.033189 100 160 240
-0.185714 0.785714 0.034457 100 160 240
-0.185714 0.800000 0.035655 100 160 240
-0.185714 0.814286 0.036781 100 160 240
-0.185714 0.828571 0.037833 100 160 240
-0.185714 0.842857 0.038809 100 160 240
-0.185714 0.857143 0.039707 100 160 240
-0.185714 0.871429 0.040525 100 160 240
-0.185714 0.885714 0.041262 100 160 240
-0.185714 0.900000 0.041915 100 160 240
-0.185714 0.914286 0.042484 100 160 240
-0.185714 0.928571 0.042967 100 160 240
-0.185714 0.942857 0.043364 100 160 240
-0.185714 0.957143 0.043673 100 160 240
-0.185714 0.971429 0.043894 100 160 240
-0.185714 0.985714 0.044027 100 160 240
-0.185714 1.000000 0.044072 100 160 240
-0.171429 -1.000000 0.041032 100 160 240
-0.171429 -0.985714 0.040991 100 160 240
-0.171429 -0.971429 0.040867 100 160 240
-0.171429 -0.957143 0.040661 100 160 240
-0.171429 -0.942857 0.040373 100 160 240
-0.171429 -0.928571 0.040003 100 160 240
-0.171429 -0.914286 0.039553 100 160 240
-0.171429 -0.900000 0.039024 100 160 240
-0.171429 -0.885714 0.038416 100 160 240
-0.171429 -0.871429 0.037730 100 160 240
-0.171429 -0.857143 0.036969 100 160 240
-0.171429 -0.842857 0.036133 100 160 240
-0.171429 -0.828571 0.035224 100 160 240
-0.171429 -0.814286 0.034244 100 160 240
-0.171429 -0.800000 0.033196 100 160 240
-0.171429 -0.785714 0.032080 100 160 240
-0.171429 -0.771429 0.030900 100 160 240
-0.171429 -0.757143 0.029658 100 160 240
-0.171429 -0.742857 0.028356 100 160 240
-0.171429 -0.728571 0.026997 100 160 240
-0.171429 -0.714286 0.025583 100 160 240
-0.171429 -0.700000 0.024118 100 160 240
-0.171429 -0.685714 0.022604 100 160 240
-0.171429 -0.671429 0.021045 100 160 240
-0.171429 -0.657143 0.019444 100 160 240
-0.171429 -0.642857 0.017803 100 160 240
-0.171429 -0.628571 0.016127 100 160 240
-0.171429 -0.614286 0.014418 100 160 240
-0.171429 -0.600000 0.012680 100 160 240
-0.171429 -0.585714 0.010916 100 160 240
-0.171429 -0.571429 0.009130 100 160 240
-0.171429 -0.557143 0.007327 100 160 240
-0.171429 -0.542857 0.005508 100 160 240
-0.171429 -0.528571 0.003678 100 160 240
-0.171429 -0.514286 0.001841 100 160 240
-0.171429 -0.500000 -0.000000 100 160 240
-0.171429 -0.485714 -0.001841 100 160 240
-0.171429 -0.471429 -0.003678 100 160 240
-0.171429 -0.457143 -0.005508 100 160 240
-0.171429 -0.442857 -0.007327 100 160 240
-0.171429 -0.428571 -0.009130 100 160 240
-0.171429 -0.414286 -0.010916 100 160 240
-0.171429 -0.400000 -0.012680 100 160 240
-0.171429 -0.385714 -0.014418 100 160 240
-0.171429 -0.371429 -0.016127 100 160 240
-0.171429 -0.357143 -0.017803 100 160 240
-0.171429 -0.342857 -0.019444 100 160 240
-0.171429 -0.328571 -0.021045 100 160 240
-0.171429 -0.314286 -0.022604 100 160 240
-0.171429 -0.300000 -0.024118 100 160 240
-0.171429 -0.285714 -0.025583 100 160 240
-0.171429 -0.271429 -0.026997 100 160 240
-0.171429 -0.257143 -0.028356 100 160 240
-0.171429 -0.242857 -0.029658 100 160 240
-0.171429 -0.228571 -0.030900 100 160 240
-0.171429 -0.214286 -0.032080 100 160 240
-0.171429 -0.200000 -0.033196 100 160 240
-0.171429 -0.185714 -0.034244 100 160 240
-0.171429 -0.171429 -0.035224 100 160 240
-0.171429 -0.157143 -0.036133 100 160 240
-0.171429 -0.142857 -0.036969 100 160 240
-0.171429 -0.128571 -0.037730 100 160 240
-0.171429 -0.114286 -0.038416 100 160 240
-0.171429 -0.100000 -0.039024 100 160 240
-0.171429 -0.085714 -0.039553 100 160 240
-0.171429 -0.071429 -0.040003 100 160 240
-0.171429 -0.057143 -0.040373 100 160 240
-0.171429 -0.042857 -0.040661 100 160 240
-0.171429 -0.028571 -0.040867 100 160 240
-0.171429 -0.014286 -0.040991 100 160 240
-0.171429 0.000000 -0.041032 100 160 240
-0.171429 0.014286 -0.040991 100 160 240
-0.171429 0.028571 -0.040867 100 160 240
-0.171429 0.042857 -0.040661 100 160 240
-0.171429 0.057143 -0.040373 100 160 240
-0.171429 0.071429 -0.040003 100 160 240
-0.171429 0.085714 -0.039553 100 160 240
-0.171429 0.100000 -0.039024 100 160 240
-0.171429 0.114286 -0.038416 100 160 240
-0.171429 0.128571 -0.037730 100 160 240
-0.171429 0.142857 -0.036969 100 160 240
-0.171429 0.157143 -0.036133 100 160 240
-0.171429 0.171429 -0.035224 100 160 240
-0.171429 0.185714 -0.034244 100 160 240
-0.171429 0.200000 -0.033196 100 160 240
-0.171429 0.214286 -0.032080 100 160 240
-0.171429 0.228571 -0.030900 100 160 240
-0.171429 0.242857 -0.029658 100 160 240
-0.171429 0.257143 -0.028356 100 160 240
-0.171429 0.271429 -0.026997 100 160 240
-0.171429 0.285714 -0.025583 100 160 240
-0.171429 0.300000 -0.024118 100 160 240
-0.171429 0.314286 -0.022604 100 160 240
-0.171429 0.328571 -0.021045 100 160 240
-0.171429 0.342857 -0.019444 100 160 240
-0.171429 0.357143 -0.017803 100 160 240
-0.171429 0.371429 -0.016127 100 160 240
-0.171429 0.385714 -0.014418 100 160 240
-0.171429 0.400000 -0.012680 100 160 240
-0.171429 0.414286 -0.010916 100 160 240
-0.171429 0.428571 -0.009130 100 160 240
-0.171429 0.442857 -0.007327 100 160 240
-0.171429 0.457143 -0.005508 100 160 240
-0.171429 0.471429 -0.003678 100 160 240
-0.171429 0.485714 -0.001841 100 160 240
-0.171429 0.500000 -0.000000 100 160 240
-0.171429 0.514286 0.001841 100 160 240
-0.171429 0.528571 0.003678 100 160 240
-0.171429 0.542857 0.005508 100 160 240
-0.171429 0.557143 0.007327 100 160 240
-0.171429 0.571429 0.009130 100 160 240
-0.171429 0.585714 0.010916 100 160 240
-0.171429 0.600000 0.012680 100 160 240
-0.171429 0.614286 0.014418 100 160 240
-0.171429 0.628571 0.016127 100 160 240
-0.171429 0.642857 0.017803 100 160 240
-0.171429 0.657143 0.019444 100 160 240
-0.171429 0.671429 0.021045 100 160 240
-0.171429 0.685714 0.022604 100 160 240
-0.171429 0.700000 0.024118 100 160 240
-0.171429 0.714286 0.025583 100 160 240
-0.171429 0.728571 0.026997 100 160 240
-0.171429 0.742857 0.028356 100 160 240
-0.171429 0.757143 0.029658 100 160 240
-0.171429 0.771429 0.030900 100 160 240
-0.171429 0.785714 0.032080 100 160 240
-0.171429 0.800000 0.033196 100 160 240
-0.171429 0.814286 0.034244 100 160 240
-0.171429 0.828571 0.035224 100 160 240
-0.171429 0.842857 0.036133 100 160 240
-0.171429 0.857143 0.036969 100 160 240
-0.171429 0.871429 0.037730 100 160 240
-0.171429 0.885714 0.038416 100 160 240
-0.171429 0.900000 0.039024 100 160 240
-0.171429 0.914286 0.039553 100 160 240
-0.171429 0.928571 0.040003 100 160 240
-0.171429 0.942857 0.040373 100 160 240
-0.171429 0.957143 0.040661 100 160 240
-0.171429 0.971429 0.040867 100 160 240
-0.171429 0.985714 0.040991 100 160 240
-0.171429 1.000000 0.041032 100 160 240
-0.157143 -1.000000 0.037909 100 160 240
-0.157143 -0.985714 0.037871 100 160 240
-0.157143 -0.971429 0.037757 100 160 240
-0.157143 -0.957143 0.037566 100 160 240
-0.157143 -0.942857 0.037300 100 160 240
-0.157143 -0.928571 0.036959 100 160 240
-0.157143 -0.914286 0.036543 100 160 240
-0.157143 -0.900000 0.036054 100 160 240
-0.157143 -0.885714 0.035492 100 160 240
-0.157143 -0.871429 0.034859 100 160 240
-0.157143 -0.857143 0.034155 100 160 240
-0.157143 -0.842857 0.033383 100 160 240
-0.157143 -0.828571 0.032543 100 160 240
-0.157143 -0.814286 0.031638 100 160 240
-0.157143 -0.800000 0.030669 100 160 240
-0.157143 -0.785714 0.029639 100 160 240
-0.157143 -0.771429 0.028549 100 160 240
-0.157143 -0.757143 0.027401 100 160 240
-0.157143 -0.742857 0.026198 100 160 240
-0.157143 -0.728571 0.024942 100 160 240
-0.157143 -0.714286 0.023636 100 160 240
-0.157143 -0.700000 0.022283 100 160 240
-0.157143 -0.685714 0.020884 100 160 240
-0.157143 -0.671429 0.019444 100 160 240
-0.157143 -0.657143 0.017964 100 160 240
-0.157143 -0.642857 0.016448 100 160 240
-0.157143 -0.628571 0.014899 100 160 240
-0.157143 -0.614286 0.013320 100 160 240
-0.157143 -0.600000 0.011715 100 160 240
-0.157143 -0.585714 0.010085 100 160 240
-0.157143 -0.571429 0.008436 100 160 240
-0.157143 -0.557143 0.006769 100 160 240
-0.157143 -0.542857 0.005089 100 160 240
-0.157143 -0.528571 0.003398 100 160 240
-0.157143 -0.514286 0.001701 100 160 240
-0.157143 -0.500000 -0.000000 100 160 240
-0.157143 -0.485714 -0.001701 100 160 240
-0.157143 -0.471429 -0.003398 100 160 240
-0.157143 -0.457143 -0.005089 100 160 240
-0.157143 -0.442857 -0.006769 100 160 240
-0.157143 -0.428571 -0.008436 100 160 240
-0.157143 -0.414286 -0.010085 100 160 240
-0.157143 -0.400000 -0.011715 100 160 240
-0.157143 -0.385714 -0.013320 100 160 240
-0.157143 -0.371429 -0.014899 100 160 240
-0.157143 -0.357143 -0.016448 100 160 240
-0.157143 -0.342857 -0.017964 100 160 240
-0.157143 -0.328571 -0.019444 100 160 240
-0.157143 -0.314286 -0.020884 100 160 240
-0.157143 -0.300000 -0.022283 100 160 240
-0.157143 -0.285714 -0.023636 100 160 240
-0.157143 -0.271429 -0.024942 100 160 240
-0.157143 -0.257143 -0.026198 100 160 240
-0.157143 -0.242857 -0.027401 100 160 240
-0.157143 -0.228571 -0.028549 100 160 240
-0.157143 -0.214286 -0.029639 100 160 240
-0.157143 -0.200000 -0.030669 100 160 240
-0.157143 -0.185714 -0.031638 100 160 240
-0.157143 -0.171429 -0.032543 100 160 240
-0.157143 -0.157143 -0.033383 100 160 240
-0.157143 -0.142857 -0.034155 100 160 240
-0.157143 -0.128571 -0.034859 100 160 240
-0.157143 -0.114286 -0.035492 100 160 240
-0.157143 -0.100000 -0.036054 100 160 240
-0.157143 -0.085714 -0.036543 100 160 240
-0.157143 -0.071429 -0.036959 100 160 240
-0.157143 -0.057143 -0.037300 100 160 240
-0.157143 -0.042857 -0.037566 100 160 240
-0.157143 -0.028571 -0.037757 100 160 240
-0.157143 -0.014286 -0.037871 100 160 240
-0.157143 0.000000 -0.037909 100 160 240
-0.157143 0.014286 -0.037871 100 160 240
-0.157143 0.028571 -0.037757 100 160 240
-0.157143 0.042857 -0.037566 100 160 240
-0.157143 0.057143 -0.037300 100 160 240
-0.157143 0.071429 -0.036959 100 160 240
-0.157143 0.085714 -0.036543 100 160 240
-0.157143 0.100000 -0.036054 100 160 240
-0.157143 0.114286 -0.035492 100 160 240
-0.157143 0.128571 -0.034859 100 160 240
-0.157143 0.142857 -0.034155 100 160 240
-0.157143 0.157143 -0.033383 100 160 240
-0.157143 0.171429 -0.032543 100 160 240
-0.157143 0.185714 -0.031638 100 160 240
-0.157143 0.200000 -0.030669 100 160 240
-0.157143 0.214286 -0.029639 100 160 240
-0.157143 0.228571 -0.028549 100 160 240
-0.157143 0.242857 -0.027401 100 160 240
-0.157143 0.257143 -0.026198 100 160 240
-0.157143 0.271429 -0.024942 100 160 240
-0.157143 0.285714 -0.023636 100 160 240
-0.157143 0.300000 -0.022283 100 160 240
-0.157143 0.314286 -0.020884 100 160 240
-0.157143 0.328571 -0.019444 100 160 240
-0.157143 0.342857 -0.017964 100 160 240
-0.157143 0.357143 -0.016448 100 160 240
-0.157143 0.371429 -0.014899 100 160 240
-0.157143 0.385714 -0.013320 100 160 240
-0.157143 0.400000 -0.011715 100 160 240
-0.157143 0.414286 -0.010085 100 160 240
-0.157143 0.428571 -0.008436 100 160 240
-0.157143 0.442857 -0.006769 100 160 240
-0.157143 0.457143 -0.005089 100 160 240
-0.157143 0.471429 -0.003398 100 160 240
-0.157143 0.485714 -0.001701 100 160 240
-0.157143 0.500000 -0.000000 100 160 240
-0.157143 0.514286 0.001701 100 160 240
-0.157143 0.528571 0.003398 100 160 240
-0.157143 0.542857 0.005089 100 160 240
-0.157143 0.557143 0.006769 100 160 240
-0.157143 0.571429 0.008436 100 160 240
-0.157143 0.585714 0.010085 100 160 240
-0.157143 0.600000 0.011715 100 160 240
-0.157143 0.614286 0.013320 100 160 240
-0.157143 0.628571 0.014899 100 160 240
-0.157143 0.642857 0.016448 100 160 240
-0.157143 0.657143 0.017964 100 160 240
-0.157143 0.671429 0.019444 100 160 240
-0.157143 0.685714 0.020884 100 160 240
-0.157143 0.700000 0.022283 100 160 240
-0.157143 0.714286 0.023636 100 160 240
-0.157143 0.728571 0.024942 100 160 240
-0.157143 0.742857 0.026198 100 160 240
-0.157143 0.757143 0.027401 100 160 240
-0.157143 0.771429 0.028549 100 160 240
-0.157143 0.785714 0.029639 100 160 240
-0.157143 0.800000 0.030669 100 160 240
-0.157143 0.814286 0.031638 100 160 240
-0.157143 0.828571 0.032543 100 160 240
-0.157143 0.842857 0.033383 100 160 240
-0.157143 0.857143 0.034155 100 160 240
-0.157143 0.871429 0.034859 100 160 240
-0.157143 0.885714 0.035492 100 160 240
-0.157143 0.900000 0.036054 100 160 240
-0.157143 0.914286 0.036543 100 160 240
-0.157143 0.928571 0.036959 100 160 240
-0.157143 0.942857 0.037300 100 160 240
-0.157143 0.957143 0.037566 100 160 240
-0.157143 0.971429 0.037757 100 160 240
-0.157143 0.985714 0.037871 100 160 240
-0.157143 1.000000 0.037909 100 160 240
-0.142857 -1.000000 0.034711 100 160 240
-0.142857 -0.985714 0.034676 100 160 240
-0.142857 -0.971429 0.034571 100 160 240
-0.142857 -0.957143 0.034397 100 160 240
-0.142857 -0.942857 0.034153 100 160 240
-0.142857 -0.928571 0.033840 100 160 240
-0.142857 -0.914286 0.033460 100 160 240
-0.142857 -0.900000 0.033012 100 160 240
-0.142857 -0.885714 0.032497 100 160 240
-0.142857 -0.871429 0.031917 100 160 240
-0.142857 -0.857143 0.031273 100 160 240
-0.142857 -0.842857 0.030566 100 160 240
-0.142857 -0.828571 0.029797 100 160 240
-0.142857 -0.814286 0.028969 100 160 240
-0.142857 -0.800000 0.028082 100 160 240
-0.142857 -0.785714 0.027138 100 160 240
-0.142857 -0.771429 0.026140 100 160 240
-0.142857 -0.757143 0.025089 100 160 240
-0.142857 -0.742857 0.023987 100 160 240
-0.142857 -0.728571 0.022838 100 160 240
-0.142857 -0.714286 0.021642 100 160 240
-0.142857 -0.700000 0.020402 100 160 240
-0.142857 -0.685714 0.019122 100 160 240
-0.142857 -0.671429 0.017803 100 160 240
-0.142857 -0.657143 0.016448 100 160 240
-0.142857 -0.642857 0.015060 100 160 240
-0.142857 -0.628571 0.013642 100 160 240
-0.142857 -0.614286 0.012196 100 160 240
-0.142857 -0.600000 0.010726 100 160 240
