ply
format ascii 1.0
element vertex 1226
property float x
property float y
property float z
property uchar red
property uchar green
property uchar blue
end_header
0.414286 -0.700000 -0.037747 240 140 80
0.414286 -0.685714 -0.026887 240 140 80
0.414286 -0.671429 0.092644 240 140 80
0.414286 -0.657143 0.088785 240 140 80
0.414286 -0.642857 -0.000641 240 140 80
0.414286 -0.628571 0.036066 240 140 80
0.414286 -0.614286 -0.093938 240 140 80
0.414286 -0.600000 -0.016752 240 140 80
0.414286 -0.585714 -0.016768 240 140 80
0.414286 -0.571429 -0.008406 240 140 80
0.414286 -0.557143 0.017710 240 140 80
0.414286 -0.542857 -0.088223 240 140 80
0.414286 -0.528571 -0.061575 240 140 80
0.414286 -0.514286 0.120870 240 140 80
0.414286 -0.500000 -0.102443 240 140 80
0.414286 -0.485714 0.003381 240 140 80
0.414286 -0.471429 0.043237 240 140 80
0.414286 -0.457143 0.027800 240 140 80
0.414286 -0.442857 0.003483 240 140 80
0.414286 -0.428571 -0.091013 240 140 80
0.414286 -0.414286 -0.027581 240 140 80
0.414286 -0.400000 -0.088013 240 140 80
0.414286 -0.385714 0.116267 240 140 80
0.414286 -0.371429 0.020357 240 140 80
0.414286 -0.357143 0.043182 240 140 80
0.414286 -0.342857 0.011563 240 140 80
0.414286 -0.328571 -0.022945 240 140 80
0.414286 -0.314286 0.066786 240 140 80
0.414286 -0.300000 0.052309 240 140 80
0.414286 -0.285714 0.035938 240 140 80
0.414286 -0.271429 0.034595 240 140 80
0.414286 -0.257143 0.041763 240 140 80
0.414286 -0.242857 -0.016454 240 140 80
0.414286 -0.228571 0.024411 240 140 80
0.414286 -0.214286 0.004884 240 140 80
0.414286 -0.200000 -0.014130 240 140 80
0.414286 -0.185714 0.038415 240 140 80
0.414286 -0.171429 0.120870 240 140 80
0.414286 -0.157143 -0.119917 240 140 80
0.414286 -0.142857 0.081228 240 140 80
0.414286 -0.128571 -0.025638 240 140 80
0.414286 -0.114286 0.067889 240 140 80
0.414286 -0.100000 -0.060239 240 140 80
0.414286 -0.085714 -0.010404 240 140 80
0.414286 -0.071429 0.060717 240 140 80
0.414286 -0.057143 -0.004004 240 140 80
0.414286 -0.042857 0.020776 240 140 80
0.414286 -0.028571 -0.068274 240 140 80
0.414286 -0.014286 -0.067750 240 140 80
0.414286 0.000000 0.094200 240 140 80
0.414286 0.014286 0.009385 240 140 80
0.414286 0.028571 -0.004855 240 140 80
0.414286 0.042857 -0.081729 240 140 80
0.414286 0.057143 -0.058470 240 140 80
0.414286 0.071429 -0.060978 240 140 80
0.414286 0.085714 -0.002757 240 140 80
0.414286 0.100000 -0.006748 240 140 80
0.414286 0.114286 -0.034395 240 140 80
0.414286 0.128571 -0.039598 240 140 80
0.414286 0.142857 0.006281 240 140 80
0.414286 0.157143 0.069306 240 140 80
0.414286 0.171429 -0.079278 240 140 80
0.414286 0.185714 -0.083893 240 140 80
0.414286 0.200000 0.063762 240 140 80
0.414286 0.214286 -0.084379 240 140 80
0.414286 0.228571 -0.023069 240 140 80
0.414286 0.242857 0.007030 240 140 80
0.414286 0.257143 0.102934 240 140 80
0.414286 0.271429 -0.120692 240 140 80
0.414286 0.285714 -0.163956 240 140 80
0.414286 0.300000 -0.004701 240 140 80
0.414286 0.314286 0.060692 240 140 80
0.414286 0.328571 0.008499 240 140 80
0.414286 0.342857 -0.045647 240 140 80
0.414286 0.357143 0.011291 240 140 80
0.414286 0.371429 -0.116256 240 140 80
0.414286 0.385714 0.048736 240 140 80
0.414286 0.400000 0.083662 240 140 80
0.414286 0.414286 -0.012044 240 140 80
0.414286 0.428571 0.046382 240 140 80
0.414286 0.442857 -0.062353 240 140 80
0.414286 0.457143 0.083510 240 140 80
0.414286 0.471429 -0.038166 240 140 80
0.414286 0.485714 -0.045049 240 140 80
0.414286 0.500000 -0.045075 240 140 80
0.414286 0.514286 -0.099934 240 140 80
0.414286 0.528571 0.039836 240 140 80
0.414286 0.542857 0.113242 240 140 80
0.414286 0.557143 -0.084532 240 140 80
0.414286 0.571429 -0.011212 240 140 80
0.414286 0.585714 0.026610 240 140 80
0.414286 0.600000 -0.031982 240 140 80
0.414286 0.614286 -0.092412 240 140 80
0.414286 0.628571 0.018921 240 140 80
0.414286 0.642857 0.059497 240 140 80
0.414286 0.657143 0.005977 240 140 80
0.414286 0.671429 -0.063276 240 140 80
0.414286 0.685714 -0.016978 240 140 80
0.414286 0.700000 -0.114227 240 140 80
0.414286 0.714286 -0.003323 240 140 80
0.414286 0.728571 0.072192 240 140 80
0.414286 0.742857 0.062870 240 140 80
0.414286 0.757143 -0.005046 240 140 80
0.414286 0.771429 0.024571 240 140 80
0.414286 0.785714 -0.030655 240 140 80
0.414286 0.800000 0.007441 240 140 80
0.414286 0.814286 -0.035250 240 140 80
0.414286 0.828571 0.009321 240 140 80
0.414286 0.842857 -0.030587 240 140 80
0.414286 0.857143 0.011119 240 140 80
0.414286 0.871429 0.041115 240 140 80
0.414286 0.885714 -0.001001 240 140 80
0.414286 0.900000 -0.076606 240 140 80
0.414286 0.914286 0.028322 240 140 80
0.414286 0.928571 -0.014527 240 140 80
0.414286 0.942857 -0.028044 240 140 80
0.414286 0.957143 0.033354 240 140 80
0.414286 0.971429 -0.047275 240 140 80
0.414286 0.985714 0.055212 240 140 80
0.414286 1.000000 0.031621 240 140 80
0.428571 -1.000000 -0.040854 240 140 80
0.428571 -0.985714 -0.039452 240 140 80
0.428571 -0.971429 -0.007118 240 140 80
0.428571 -0.957143 -0.051329 240 140 80
0.428571 -0.942857 0.056080 240 140 80
0.428571 -0.928571 -0.127636 240 140 80
0.428571 -0.914286 0.008780 240 140 80
0.428571 -0.900000 -0.019674 240 140 80
0.428571 -0.885714 -0.064767 240 140 80
0.428571 -0.871429 0.035723 240 140 80
0.428571 -0.857143 -0.028505 240 140 80
0.428571 -0.842857 0.025818 240 140 80
0.428571 -0.828571 -0.025682 240 140 80
0.428571 -0.814286 -0.015932 240 140 80
0.428571 -0.800000 0.030973 240 140 80
0.428571 -0.785714 0.054213 240 140 80
0.428571 -0.771429 0.059001 240 140 80
0.428571 -0.757143 -0.001166 240 140 80
0.428571 -0.742857 0.087651 240 140 80
0.428571 -0.728571 -0.019148 240 140 80
0.428571 -0.714286 -0.080404 240 140 80
0.428571 -0.700000 -0.105752 240 140 80
0.428571 -0.685714 -0.085315 240 140 80
0.428571 -0.671429 -0.048918 240 140 80
0.428571 -0.657143 -0.105297 240 140 80
0.428571 -0.642857 0.018609 240 140 80
0.428571 -0.628571 0.001990 240 140 80
0.428571 -0.614286 -0.001988 240 140 80
0.428571 -0.600000 0.014075 240 140 80
0.428571 -0.585714 -0.006170 240 140 80
0.428571 -0.571429 -0.014857 240 140 80
0.428571 -0.557143 -0.017979 240 140 80
0.428571 -0.542857 0.002468 240 140 80
0.428571 -0.528571 -0.063840 240 140 80
0.428571 -0.514286 0.075503 240 140 80
0.428571 -0.500000 0.087334 240 140 80
0.428571 -0.485714 0.002058 240 140 80
0.428571 -0.471429 0.129005 240 140 80
0.428571 -0.457143 -0.057195 240 140 80
0.428571 -0.442857 0.051149 240 140 80
0.428571 -0.428571 -0.095643 240 140 80
0.428571 -0.414286 0.034258 240 140 80
0.428571 -0.400000 -0.043949 240 140 80
0.428571 -0.385714 0.057047 240 140 80
0.428571 -0.371429 0.006801 240 140 80
0.428571 -0.357143 0.053996 240 140 80
0.428571 -0.342857 0.035913 240 140 80
0.428571 -0.328571 0.029848 240 140 80
0.428571 -0.314286 -0.016083 240 140 80
0.428571 -0.300000 0.090356 240 140 80
0.428571 -0.285714 0.021195 240 140 80
0.428571 -0.271429 0.027451 240 140 80
0.428571 -0.257143 0.084737 240 140 80
0.428571 -0.242857 -0.014557 240 140 80
0.428571 -0.228571 0.103022 240 140 80
0.428571 -0.214286 0.061620 240 140 80
0.428571 -0.200000 0.004741 240 140 80
0.428571 -0.185714 -0.082149 240 140 80
0.428571 -0.171429 0.072021 240 140 80
0.428571 -0.157143 -0.017568 240 140 80
0.428571 -0.142857 0.005881 240 140 80
0.428571 -0.128571 0.007030 240 140 80
0.428571 -0.114286 0.056486 240 140 80
0.428571 -0.100000 0.035988 240 140 80
0.428571 -0.085714 -0.107402 240 140 80
0.428571 -0.071429 -0.037213 240 140 80
0.428571 -0.057143 0.020809 240 140 80
0.428571 -0.042857 0.009871 240 140 80
0.428571 -0.028571 0.047060 240 140 80
0.428571 -0.014286 0.032223 240 140 80
0.428571 0.000000 0.096174 240 140 80
0.428571 0.014286 -0.040896 240 140 80
0.428571 0.028571 0.077229 240 140 80
0.428571 0.042857 0.021786 240 140 80
0.428571 0.057143 0.017993 240 140 80
0.428571 0.071429 0.038871 240 140 80
0.428571 0.085714 -0.019620 240 140 80
0.428571 0.100000 0.040667 240 140 80
0.428571 0.114286 -0.012105 240 140 80
0.428571 0.128571 0.040988 240 140 80
0.428571 0.142857 -0.044633 240 140 80
0.428571 0.157143 0.066661 240 140 80
0.428571 0.171429 -0.089568 240 140 80
0.428571 0.185714 -0.037110 240 140 80
0.428571 0.200000 -0.002610 240 140 80
0.428571 0.214286 0.013835 240 140 80
0.428571 0.228571 -0.046764 240 140 80
0.428571 0.242857 -0.022684 240 140 80
0.428571 0.257143 0.015305 240 140 80
0.428571 0.271429 0.059608 240 140 80
0.428571 0.285714 0.076536 240 140 80
0.428571 0.300000 -0.026872 240 140 80
0.428571 0.314286 -0.003688 240 140 80
0.428571 0.328571 -0.017595 240 140 80
0.428571 0.342857 -0.089606 240 140 80
0.428571 0.357143 -0.025239 240 140 80
0.428571 0.371429 0.066942 240 140 80
0.428571 0.385714 -0.076231 240 140 80
0.428571 0.400000 0.168861 240 140 80
0.428571 0.414286 0.055606 240 140 80
0.428571 0.428571 0.102339 240 140 80
0.428571 0.442857 0.010545 240 140 80
0.428571 0.457143 -0.135523 240 140 80
0.428571 0.471429 0.025033 240 140 80
0.428571 0.485714 0.094049 240 140 80
0.428571 0.500000 -0.032514 240 140 80
0.428571 0.514286 0.075065 240 140 80
0.428571 0.528571 0.043133 240 140 80
0.428571 0.542857 0.046549 240 140 80
0.428571 0.557143 0.042579 240 140 80
0.428571 0.571429 0.034838 240 140 80
0.428571 0.585714 0.036999 240 140 80
0.428571 0.600000 0.070711 240 140 80
0.428571 0.614286 0.024173 240 140 80
0.428571 0.628571 0.037567 240 140 80
0.428571 0.642857 0.024483 240 140 80
0.428571 0.657143 0.008573 240 140 80
0.428571 0.671429 -0.049236 240 140 80
0.428571 0.685714 -0.105495 240 140 80
0.428571 0.700000 -0.057388 240 140 80
0.428571 0.714286 -0.072722 240 140 80
0.428571 0.728571 -0.083753 240 140 80
0.428571 0.742857 0.041011 240 140 80
0.428571 0.757143 -0.018552 240 140 80
0.428571 0.771429 0.075260 240 140 80
0.428571 0.785714 0.177486 240 140 80
0.428571 0.800000 0.045971 240 140 80
0.428571 0.814286 -0.026154 240 140 80
0.428571 0.828571 0.022797 240 140 80
0.428571 0.842857 -0.011420 240 140 80
0.428571 0.857143 0.017171 240 140 80
0.428571 0.871429 0.118518 240 140 80
0.428571 0.885714 0.094621 240 140 80
0.428571 0.900000 0.072718 240 140 80
0.428571 0.914286 0.017319 240 140 80
0.428571 0.928571 0.101384 240 140 80
0.428571 0.942857 0.049276 240 140 80
0.428571 0.957143 0.050747 240 140 80
0.428571 0.971429 -0.068458 240 140 80
0.428571 0.985714 -0.034633 240 140 80
0.428571 1.000000 0.010435 240 140 80
0.442857 -1.000000 -0.012161 240 140 80
0.442857 -0.985714 -0.030285 240 140 80
0.442857 -0.971429 -0.113449 240 140 80
0.442857 -0.957143 -0.043578 240 140 80
0.442857 -0.942857 -0.005989 240 140 80
0.442857 -0.928571 0.018641 240 140 80
0.442857 -0.914286 -0.060829 240 140 80
0.442857 -0.900000 -0.007375 240 140 80
0.442857 -0.885714 0.103077 240 140 80
0.442857 -0.871429 0.009843 240 140 80
0.442857 -0.857143 -0.111465 240 140 80
0.442857 -0.842857 -0.010435 240 140 80
0.442857 -0.828571 0.000402 240 140 80
0.442857 -0.814286 0.075200 240 140 80
0.442857 -0.800000 0.011258 240 140 80
0.442857 -0.785714 0.081450 240 140 80
0.442857 -0.771429 0.019056 240 140 80
0.442857 -0.757143 0.069517 240 140 80
0.442857 -0.742857 0.077085 240 140 80
0.442857 -0.728571 0.091126 240 140 80
0.442857 -0.714286 0.011468 240 140 80
0.442857 -0.700000 0.038456 240 140 80
0.442857 -0.685714 0.223451 240 140 80
0.442857 -0.671429 -0.071445 240 140 80
0.442857 -0.657143 0.011544 240 140 80
0.442857 -0.642857 0.028606 240 140 80
0.442857 -0.628571 -0.039771 240 140 80
0.442857 -0.614286 0.049358 240 140 80
0.442857 -0.600000 -0.008947 240 140 80
0.442857 -0.585714 0.047305 240 140 80
0.442857 -0.571429 0.011171 240 140 80
0.442857 -0.557143 -0.054369 240 140 80
0.442857 -0.542857 0.059915 240 140 80
0.442857 -0.528571 0.118890 240 140 80
0.442857 -0.514286 0.052847 240 140 80
0.442857 -0.500000 0.017184 240 140 80
0.442857 -0.485714 -0.097790 240 140 80
0.442857 -0.471429 0.019629 240 140 80
0.442857 -0.457143 -0.001436 240 140 80
0.442857 -0.442857 -0.046061 240 140 80
0.442857 -0.428571 -0.108785 240 140 80
0.442857 -0.414286 0.026907 240 140 80
0.442857 -0.400000 0.055661 240 140 80
0.442857 -0.385714 0.042520 240 140 80
0.442857 -0.371429 0.130050 240 140 80
0.442857 -0.357143 -0.111159 240 140 80
0.442857 -0.342857 0.020325 240 140 80
0.442857 -0.328571 -0.001100 240 140 80
0.442857 -0.314286 0.081408 240 140 80
0.442857 -0.300000 -0.001346 240 140 80
0.442857 -0.285714 -0.054871 240 140 80
0.442857 -0.271429 -0.002830 240 140 80
0.442857 -0.257143 0.025097 240 140 80
0.442857 -0.242857 -0.042673 240 140 80
0.442857 -0.228571 -0.044498 240 140 80
0.442857 -0.214286 0.016264 240 140 80
0.442857 -0.200000 0.050161 240 140 80
0.442857 -0.185714 -0.013039 240 140 80
0.442857 -0.171429 0.028108 240 140 80
0.442857 -0.157143 -0.029017 240 140 80
0.442857 -0.142857 -0.019194 240 140 80
0.442857 -0.128571 0.011953 240 140 80
0.442857 -0.114286 0.055515 240 140 80
0.442857 -0.100000 0.094062 240 140 80
0.442857 -0.085714 -0.006810 240 140 80
0.442857 -0.071429 0.027059 240 140 80
0.442857 -0.057143 0.112544 240 140 80
0.442857 -0.042857 0.049779 240 140 80
0.442857 -0.028571 -0.020180 240 140 80
0.442857 -0.014286 0.024776 240 140 80
0.442857 0.000000 -0.080856 240 140 80
0.442857 0.014286 -0.122671 240 140 80
0.442857 0.028571 -0.043223 240 140 80
0.442857 0.042857 -0.041406 240 140 80
0.442857 0.057143 -0.076176 240 140 80
0.442857 0.071429 0.061060 240 140 80
0.442857 0.085714 -0.025541 240 140 80
0.442857 0.100000 0.005826 240 140 80
0.442857 0.114286 0.004495 240 140 80
0.442857 0.128571 -0.011332 240 140 80
0.442857 0.142857 -0.066633 240 140 80
0.442857 0.157143 0.114527 240 140 80
0.442857 0.171429 -0.112742 240 140 80
0.442857 0.185714 -0.001223 240 140 80
0.442857 0.200000 0.039997 240 140 80
0.442857 0.214286 -0.011144 240 140 80
0.442857 0.228571 -0.005540 240 140 80
0.442857 0.242857 0.018970 240 140 80
0.442857 0.257143 0.013927 240 140 80
0.442857 0.271429 -0.018989 240 140 80
0.442857 0.285714 0.061899 240 140 80
0.442857 0.300000 0.030515 240 140 80
0.442857 0.314286 0.086281 240 140 80
0.442857 0.328571 0.006258 240 140 80
0.442857 0.342857 -0.113252 240 140 80
0.442857 0.357143 -0.096288 240 140 80
0.442857 0.371429 -0.028901 240 140 80
0.442857 0.385714 0.027581 240 140 80
0.442857 0.400000 -0.092844 240 140 80
0.442857 0.414286 -0.032262 240 140 80
0.442857 0.428571 0.071579 240 140 80
0.442857 0.442857 0.020474 240 140 80
0.442857 0.457143 -0.040239 240 140 80
0.442857 0.471429 -0.005588 240 140 80
0.442857 0.485714 0.006877 240 140 80
0.442857 0.500000 -0.023803 240 140 80
0.442857 0.514286 -0.017569 240 140 80
0.442857 0.528571 -0.036402 240 140 80
0.442857 0.542857 0.013032 240 140 80
0.442857 0.557143 0.093756 240 140 80
0.442857 0.571429 0.083474 240 140 80
0.442857 0.585714 -0.072097 240 140 80
0.442857 0.600000 0.132814 240 140 80
0.442857 0.614286 -0.006001 240 140 80
0.442857 0.628571 -0.079636 240 140 80
0.442857 0.642857 -0.086422 240 140 80
0.442857 0.657143 0.008586 240 140 80
0.442857 0.671429 0.014521 240 140 80
0.442857 0.685714 -0.036164 240 140 80
0.442857 0.700000 -0.046031 240 140 80
0.442857 0.714286 -0.011976 240 140 80
0.442857 0.728571 0.016200 240 140 80
0.442857 0.742857 0.038870 240 140 80
0.442857 0.757143 0.033602 240 140 80
0.442857 0.771429 -0.135526 240 140 80
0.442857 0.785714 -0.033895 240 140 80
0.442857 0.800000 0.015282 240 140 80
0.442857 0.814286 0.022784 240 140 80
0.442857 0.828571 0.046020 240 140 80
0.442857 0.842857 -0.086165 240 140 80
0.442857 0.857143 0.089898 240 140 80
0.442857 0.871429 -0.068828 240 140 80
0.442857 0.885714 -0.011163 240 140 80
0.442857 0.900000 -0.026251 240 140 80
0.442857 0.914286 -0.026726 240 140 80
0.442857 0.928571 -0.044416 240 140 80
0.442857 0.942857 0.046954 240 140 80
0.442857 0.957143 0.047005 240 140 80
0.442857 0.971429 0.020497 240 140 80
0.442857 0.985714 -0.073404 240 140 80
0.442857 1.000000 -0.035529 240 140 80
0.457143 -1.000000 -0.002347 240 140 80
0.457143 -0.985714 0.023149 240 140 80
0.457143 -0.971429 -0.031393 240 140 80
0.457143 -0.957143 -0.014999 240 140 80
0.457143 -0.942857 0.154338 240 140 80
0.457143 -0.928571 0.003884 240 140 80
0.457143 -0.914286 -0.016423 240 140 80
0.457143 -0.900000 -0.140034 240 140 80
0.457143 -0.885714 -0.042900 240 140 80
0.457143 -0.871429 0.093544 240 140 80
0.457143 -0.857143 0.050413 240 140 80
0.457143 -0.842857 -0.067697 240 140 80
0.457143 -0.828571 0.046974 240 140 80
0.457143 -0.814286 0.010125 240 140 80
0.457143 -0.800000 -0.045373 240 140 80
0.457143 -0.785714 0.045753 240 140 80
0.457143 -0.771429 -0.034532 240 140 80
0.457143 -0.757143 -0.016920 240 140 80
0.457143 -0.742857 0.002240 240 140 80
0.457143 -0.728571 0.012493 240 140 80
0.457143 -0.714286 -0.024490 240 140 80
0.457143 -0.700000 0.017335 240 140 80
0.457143 -0.685714 0.001204 240 140 80
0.457143 -0.671429 0.011571 240 140 80
0.457143 -0.657143 0.023716 240 140 80
0.457143 -0.642857 -0.036006 240 140 80
0.457143 -0.628571 -0.078744 240 140 80
0.457143 -0.614286 -0.003795 240 140 80
0.457143 -0.600000 0.072903 240 140 80
0.457143 -0.585714 0.019286 240 140 80
0.457143 -0.571429 0.014191 240 140 80
0.457143 -0.557143 -0.041967 240 140 80
0.457143 -0.542857 -0.065534 240 140 80
0.457143 -0.528571 -0.070627 240 140 80
0.457143 -0.514286 -0.052389 240 140 80
0.457143 -0.500000 -0.020973 240 140 80
0.457143 -0.485714 -0.088799 240 140 80
0.457143 -0.471429 -0.006491 240 140 80
0.457143 -0.457143 -0.090501 240 140 80
0.457143 -0.442857 0.037623 240 140 80
0.457143 -0.428571 -0.000453 240 140 80
0.457143 -0.414286 -0.100116 240 140 80
0.457143 -0.400000 -0.030864 240 140 80
0.457143 -0.385714 0.013614 240 140 80
0.457143 -0.371429 0.023189 240 140 80
0.457143 -0.357143 0.044646 240 140 80
0.457143 -0.342857 -0.019413 240 140 80
0.457143 -0.328571 -0.007984 240 140 80
0.457143 -0.314286 -0.012592 240 140 80
0.457143 -0.300000 0.031465 240 140 80
0.457143 -0.285714 -0.039203 240 140 80
0.457143 -0.271429 -0.008855 240 140 80
0.457143 -0.257143 0.009552 240 140 80
0.457143 -0.242857 -0.019445 240 140 80
0.457143 -0.228571 -0.061863 240 140 80
0.457143 -0.214286 0.077903 240 140 80
0.457143 -0.200000 0.030068 240 140 80
0.457143 -0.185714 -0.051710 240 140 80
0.457143 -0.171429 0.115355 240 140 80
0.457143 -0.157143 -0.043294 240 140 80
0.457143 -0.142857 -0.049626 240 140 80
0.457143 -0.128571 -0.020577 240 140 80
0.457143 -0.114286 0.032226 240 140 80
0.457143 -0.100000 0.085848 240 140 80
0.457143 -0.085714 0.080765 240 140 80
0.457143 -0.071429 0.031929 240 140 80
0.457143 -0.057143 0.004999 240 140 80
0.457143 -0.042857 0.038291 240 140 80
0.457143 -0.028571 -0.044581 240 140 80
0.457143 -0.014286 -0.039720 240 140 80
0.457143 0.000000 0.031873 240 140 80
0.457143 0.014286 0.011845 240 140 80
0.457143 0.028571 0.014731 240 140 80
0.457143 0.042857 -0.057672 240 140 80
0.457143 0.057143 0.015465 240 140 80
0.457143 0.071429 -0.081782 240 140 80
0.457143 0.085714 0.054912 240 140 80
0.457143 0.100000 0.001042 240 140 80
0.457143 0.114286 -0.036317 240 140 80
0.457143 0.128571 -0.026375 240 140 80
0.457143 0.142857 0.162608 240 140 80
0.457143 0.157143 0.179220 240 140 80
0.457143 0.171429 -0.039619 240 140 80
0.457143 0.185714 0.078556 240 140 80
0.457143 0.200000 -0.167492 240 140 80
0.457143 0.214286 0.064738 240 140 80
0.457143 0.228571 0.002177 240 140 80
0.457143 0.242857 0.015003 240 140 80
0.457143 0.257143 -0.054522 240 140 80
0.457143 0.271429 -0.074447 240 140 80
0.457143 0.285714 0.014833 240 140 80
0.457143 0.300000 -0.024967 240 140 80
0.457143 0.314286 0.030382 240 140 80
0.457143 0.328571 0.060897 240 140 80
0.457143 0.342857 -0.005625 240 140 80
0.457143 0.357143 0.031067 240 140 80
0.457143 0.371429 0.011301 240 140 80
0.457143 0.385714 0.013844 240 140 80
0.457143 0.400000 -0.028997 240 140 80
0.457143 0.414286 0.014093 240 140 80
0.457143 0.428571 0.026385 240 140 80
0.457143 0.442857 0.004805 240 140 80
0.457143 0.457143 -0.025180 240 140 80
0.457143 0.471429 -0.082720 240 140 80
0.457143 0.485714 -0.060792 240 140 80
0.457143 0.500000 0.089802 240 140 80
0.457143 0.514286 0.059974 240 140 80
0.457143 0.528571 0.017319 240 140 80
0.457143 0.542857 0.018078 240 140 80
0.457143 0.557143 -0.008111 240 140 80
0.457143 0.571429 0.040642 240 140 80
0.457143 0.585714 0.055255 240 140 80
0.457143 0.600000 -0.013327 240 140 80
0.457143 0.614286 0.018149 240 140 80
0.457143 0.628571 0.056572 240 140 80
0.457143 0.642857 -0.089810 240 140 80
0.457143 0.657143 -0.053323 240 140 80
0.457143 0.671429 -0.032171 240 140 80
0.457143 0.685714 -0.066231 240 140 80
0.457143 0.700000 -0.024591 240 140 80
0.457143 0.714286 -0.047857 240 140 80
0.457143 0.728571 -0.022163 240 140 80
0.457143 0.742857 0.028863 240 140 80
0.457143 0.757143 -0.066678 240 140 80
0.457143 0.771429 0.006894 240 140 80
0.457143 0.785714 0.079270 240 140 80
0.457143 0.800000 0.012232 240 140 80
0.457143 0.814286 -0.069406 240 140 80
0.457143 0.828571 -0.033887 240 140 80
0.457143 0.842857 0.067127 240 140 80
0.457143 0.857143 -0.014020 240 140 80
0.457143 0.871429 -0.035413 240 140 80
0.457143 0.885714 0.046507 240 140 80
0.457143 0.900000 -0.040362 240 140 80
0.457143 0.914286 -0.063355 240 140 80
0.457143 0.928571 0.035498 240 140 80
0.457143 0.942857 0.002232 240 140 80
0.457143 0.957143 -0.036666 240 140 80
0.457143 0.971429 0.028136 240 140 80
0.457143 0.985714 0.063493 240 140 80
0.457143 1.000000 0.063768 240 140 80
0.471429 -1.000000 0.006338 240 140 80
0.471429 -0.985714 0.027693 240 140 80
0.471429 -0.971429 0.028814 240 140 80
0.471429 -0.957143 -0.084689 240 140 80
0.471429 -0.942857 0.095492 240 140 80
0.471429 -0.928571 -0.037119 240 140 80
0.471429 -0.914286 -0.031440 240 140 80
0.471429 -0.900000 -0.046405 240 140 80
0.471429 -0.885714 -0.054609 240 140 80
0.471429 -0.871429 0.064574 240 140 80
0.471429 -0.857143 0.000801 240 140 80
0.471429 -0.842857 -0.032212 240 140 80
0.471429 -0.828571 -0.103981 240 140 80
0.471429 -0.814286 0.010845 240 140 80
0.471429 -0.800000 -0.002376 240 140 80
0.471429 -0.785714 -0.058486 240 140 80
0.471429 -0.771429 -0.005114 240 140 80
0.471429 -0.757143 -0.104506 240 140 80
0.471429 -0.742857 0.037529 240 140 80
0.471429 -0.728571 -0.069285 240 140 80
0.471429 -0.714286 0.028959 240 140 80
0.471429 -0.700000 0.006867 240 140 80
0.471429 -0.685714 -0.120789 240 140 80
0.471429 -0.671429 -0.063520 240 140 80
0.471429 -0.657143 -0.036889 240 140 80
0.471429 -0.642857 0.046907 240 140 80
0.471429 -0.628571 0.034610 240 140 80
0.471429 -0.614286 0.037661 240 140 80
0.471429 -0.600000 0.096131 240 140 80
0.471429 -0.585714 -0.015409 240 140 80
0.471429 -0.571429 -0.028547 240 140 80
0.471429 -0.557143 -0.107305 240 140 80
0.471429 -0.542857 -0.058393 240 140 80
0.471429 -0.528571 0.033743 240 140 80
0.471429 -0.514286 -0.047552 240 140 80
0.471429 -0.500000 -0.049287 240 140 80
0.471429 -0.485714 0.054926 240 140 80
0.471429 -0.471429 -0.141331 240 140 80
0.471429 -0.457143 0.080060 240 140 80
0.471429 -0.442857 0.075767 240 140 80
0.471429 -0.428571 -0.101900 240 140 80
0.471429 -0.414286 0.028337 240 140 80
0.471429 -0.400000 -0.000014 240 140 80
0.471429 -0.385714 0.053608 240 140 80
0.471429 -0.371429 -0.018825 240 140 80
0.471429 -0.357143 -0.005754 240 140 80
0.471429 -0.342857 0.081119 240 140 80
0.471429 -0.328571 -0.033056 240 140 80
0.471429 -0.314286 0.024435 240 140 80
0.471429 -0.300000 0.037669 240 140 80
0.471429 -0.285714 -0.005986 240 140 80
0.471429 -0.271429 0.051775 240 140 80
0.471429 -0.257143 0.030190 240 140 80
0.471429 -0.242857 0.049143 240 140 80
0.471429 -0.228571 -0.096738 240 140 80
0.471429 -0.214286 -0.058514 240 140 80
0.471429 -0.200000 0.017367 240 140 80
0.471429 -0.185714 0.068629 240 140 80
0.471429 -0.171429 0.082412 240 140 80
0.471429 -0.157143 0.002046 240 140 80
0.471429 -0.142857 -0.042005 240 140 80
0.471429 -0.128571 -0.061869 240 140 80
0.471429 -0.114286 -0.110641 240 140 80
0.471429 -0.100000 -0.027603 240 140 80
0.471429 -0.085714 0.033659 240 140 80
0.471429 -0.071429 -0.002887 240 140 80
0.471429 -0.057143 -0.083759 240 140 80
0.471429 -0.042857 -0.004448 240 140 80
0.471429 -0.028571 0.003466 240 140 80
0.471429 -0.014286 -0.041874 240 140 80
0.471429 0.000000 0.083794 240 140 80
0.471429 0.014286 0.026475 240 140 80
0.471429 0.028571 0.063443 240 140 80
0.471429 0.042857 0.007041 240 140 80
0.471429 0.057143 -0.055020 240 140 80
0.471429 0.071429 0.063591 240 140 80
0.471429 0.085714 0.063785 240 140 80
0.471429 0.100000 -0.032472 240 140 80
0.471429 0.114286 -0.075470 240 140 80
0.471429 0.128571 0.048303 240 140 80
0.471429 0.142857 -0.031765 240 140 80
0.471429 0.157143 -0.065703 240 140 80
0.471429 0.171429 -0.004171 240 140 80
0.471429 0.185714 0.033067 240 140 80
0.471429 0.200000 -0.042318 240 140 80
0.471429 0.214286 0.003301 240 140 80
0.471429 0.228571 0.057410 240 140 80
0.471429 0.242857 0.044349 240 140 80
0.471429 0.257143 -0.088394 240 140 80
0.471429 0.271429 0.042507 240 140 80
0.471429 0.285714 0.102089 240 140 80
0.471429 0.300000 0.054222 240 140 80
0.471429 0.314286 -0.004325 240 140 80
0.471429 0.328571 0.022538 240 140 80
0.471429 0.342857 -0.089433 240 140 80
0.471429 0.357143 -0.032463 240 140 80
0.471429 0.371429 -0.029083 240 140 80
0.471429 0.385714 0.120790 240 140 80
0.471429 0.400000 0.000711 240 140 80
0.471429 0.414286 -0.054801 240 140 80
0.471429 0.428571 0.097320 240 140 80
0.471429 0.442857 0.072127 240 140 80
0.471429 0.457143 -0.093757 240 140 80
0.471429 0.471429 -0.010288 240 140 80
0.471429 0.485714 -0.096011 240 140 80
0.471429 0.500000 0.061022 240 140 80
0.471429 0.514286 -0.129524 240 140 80
0.471429 0.528571 0.108051 240 140 80
0.471429 0.542857 -0.059782 240 140 80
0.471429 0.557143 -0.058809 240 140 80
0.471429 0.571429 0.121656 240 140 80
0.471429 0.585714 0.032115 240 140 80
0.471429 0.600000 0.020843 240 140 80
0.471429 0.614286 0.050638 240 140 80
0.471429 0.628571 -0.056007 240 140 80
0.471429 0.642857 0.051567 240 140 80
0.471429 0.657143 -0.015374 240 140 80
0.471429 0.671429 0.031273 240 140 80
0.471429 0.685714 0.013806 240 140 80
0.471429 0.700000 0.080993 240 140 80
0.471429 0.714286 -0.073031 240 140 80
0.471429 0.728571 -0.078702 240 140 80
0.471429 0.742857 0.037992 240 140 80
0.471429 0.757143 0.137332 240 140 80
0.471429 0.771429 0.031810 240 140 80
0.471429 0.785714 -0.008289 240 140 80
0.471429 0.800000 0.039131 240 140 80
0.471429 0.814286 -0.068202 240 140 80
0.471429 0.828571 0.005808 240 140 80
0.471429 0.842857 -0.095282 240 140 80
0.471429 0.857143 0.007376 240 140 80
0.471429 0.871429 0.042915 240 140 80
0.471429 0.885714 0.097893 240 140 80
0.471429 0.900000 -0.027642 240 140 80
0.471429 0.914286 0.053892 240 140 80
0.471429 0.928571 0.078482 240 140 80
0.471429 0.942857 -0.059308 240 140 80
0.471429 0.957143 -0.014489 240 140 80
0.471429 0.971429 -0.105619 240 140 80
0.471429 0.985714 -0.049021 240 140 80
0.471429 1.000000 0.025726 240 140 80
0.485714 -1.000000 -0.115287 240 140 80
0.485714 -0.985714 -0.016451 240 140 80
0.485714 -0.971429 0.042830 240 140 80
0.485714 -0.957143 0.082880 240 140 80
0.485714 -0.942857 -0.142380 240 140 80
0.485714 -0.928571 0.022702 240 140 80
0.485714 -0.914286 -0.034064 240 140 80
0.485714 -0.900000 -0.131260 240 140 80
0.485714 -0.885714 -0.057114 240 140 80
0.485714 -0.871429 0.034565 240 140 80
0.485714 -0.857143 0.000142 240 140 80
0.485714 -0.842857 0.040933 240 140 80
0.485714 -0.828571 -0.016035 240 140 80
0.485714 -0.814286 0.038383 240 140 80
0.485714 -0.800000 -0.054727 240 140 80
0.485714 -0.785714 -0.055317 240 140 80
0.485714 -0.771429 -0.008056 240 140 80
0.485714 -0.757143 -0.099680 240 140 80
0.485714 -0.742857 0.072202 240 140 80
0.485714 -0.728571 -0.013669 240 140 80
0.485714 -0.714286 -0.055032 240 140 80
0.485714 -0.700000 -0.048944 240 140 80
0.485714 -0.685714 -0.054225 240 140 80
0.485714 -0.671429 0.007737 240 140 80
0.485714 -0.657143 -0.019803 240 140 80
0.485714 -0.642857 0.050157 240 140 80
0.485714 -0.628571 -0.064967 240 140 80
0.485714 -0.614286 -0.003517 240 140 80
0.485714 -0.600000 -0.085333 240 140 80
0.485714 -0.585714 -0.026061 240 140 80
0.485714 -0.571429 0.079133 240 140 80
0.485714 -0.557143 -0.006299 240 140 80
0.485714 -0.542857 0.052276 240 140 80
0.485714 -0.528571 -0.002951 240 140 80
0.485714 -0.514286 -0.061497 240 140 80
0.485714 -0.500000 -0.049987 240 140 80
0.485714 -0.485714 -0.063406 240 140 80
0.485714 -0.471429 0.020217 240 140 80
0.485714 -0.457143 0.014581 240 140 80
0.485714 -0.442857 0.169279 240 140 80
0.485714 -0.428571 0.096895 240 140 80
0.485714 -0.414286 0.049316 240 140 80
0.485714 -0.400000 -0.054856 240 140 80
0.485714 -0.385714 0.007184 240 140 80
0.485714 -0.371429 -0.050934 240 140 80
0.485714 -0.357143 0.135733 240 140 80
0.485714 -0.342857 -0.040272 240 140 80
0.485714 -0.328571 0.067787 240 140 80
0.485714 -0.314286 -0.076294 240 140 80
0.485714 -0.300000 0.044564 240 140 80
0.485714 -0.285714 -0.069142 240 140 80
0.485714 -0.271429 -0.026143 240 140 80
0.485714 -0.257143 0.010920 240 140 80
0.485714 -0.242857 0.008545 240 140 80
0.485714 -0.228571 -0.002259 240 140 80
0.485714 -0.214286 -0.003118 240 140 80
0.485714 -0.200000 -0.048222 240 140 80
0.485714 -0.185714 -0.005703 240 140 80
0.485714 -0.171429 -0.002883 240 140 80
0.485714 -0.157143 -0.053109 240 140 80
0.485714 -0.142857 0.033660 240 140 80
0.485714 -0.128571 0.010640 240 140 80
0.485714 -0.114286 -0.042200 240 140 80
0.485714 -0.100000 0.075432 240 140 80
0.485714 -0.085714 -0.031716 240 140 80
0.485714 -0.071429 -0.108830 240 140 80
0.485714 -0.057143 0.073573 240 140 80
0.485714 -0.042857 -0.021077 240 140 80
0.485714 -0.028571 0.085074 240 140 80
0.485714 -0.014286 0.025509 240 140 80
0.485714 0.000000 -0.049954 240 140 80
0.485714 0.014286 0.064910 240 140 80
0.485714 0.028571 0.027485 240 140 80
0.485714 0.042857 0.053757 240 140 80
0.485714 0.057143 0.003433 240 140 80
0.485714 0.071429 0.090300 240 140 80
0.485714 0.085714 0.054326 240 140 80
0.485714 0.100000 -0.018711 240 140 80
0.485714 0.114286 -0.085302 240 140 80
0.485714 0.128571 -0.001992 240 140 80
0.485714 0.142857 0.004991 240 140 80
0.485714 0.157143 -0.056277 240 140 80
0.485714 0.171429 -0.009943 240 140 80
0.485714 0.185714 0.086897 240 140 80
0.485714 0.200000 -0.026065 240 140 80
0.485714 0.214286 0.065349 240 140 80
0.485714 0.228571 -0.052580 240 140 80
0.485714 0.242857 -0.055488 240 140 80
0.485714 0.257143 0.054766 240 140 80
0.485714 0.271429 -0.009332 240 140 80
0.485714 0.285714 0.013514 240 140 80
0.485714 0.300000 0.059775 240 140 80
0.485714 0.314286 0.094469 240 140 80
0.485714 0.328571 -0.070810 240 140 80
0.485714 0.342857 0.034427 240 140 80
0.485714 0.357143 0.013621 240 140 80
0.485714 0.371429 0.009265 240 140 80
0.485714 0.385714 0.103935 240 140 80
0.485714 0.400000 -0.012902 240 140 80
0.485714 0.414286 -0.033711 240 140 80
0.485714 0.428571 0.029989 240 140 80
0.485714 0.442857 -0.116301 240 140 80
0.485714 0.457143 0.022087 240 140 80
0.485714 0.471429 -0.050922 240 140 80
0.485714 0.485714 0.019615 240 140 80
0.485714 0.500000 -0.042283 240 140 80
0.485714 0.514286 0.030092 240 140 80
0.485714 0.528571 -0.013759 240 140 80
0.485714 0.542857 -0.040102 240 140 80
0.485714 0.557143 0.031710 240 140 80
0.485714 0.571429 0.043839 240 140 80
0.485714 0.585714 -0.092100 240 140 80
0.485714 0.600000 -0.073049 240 140 80
0.485714 0.614286 -0.014683 240 140 80
0.485714 0.628571 -0.020960 240 140 80
0.485714 0.642857 0.077005 240 140 80
0.485714 0.657143 0.091869 240 140 80
0.485714 0.671429 0.028035 240 140 80
0.485714 0.685714 0.063700 240 140 80
0.485714 0.700000 -0.018296 240 140 80
0.485714 0.714286 -0.077545 240 140 80
0.485714 0.728571 0.017968 240 140 80
0.485714 0.742857 -0.100044 240 140 80
0.485714 0.757143 0.094645 240 140 80
0.485714 0.771429 0.015545 240 140 80
0.485714 0.785714 0.067612 240 140 80
0.485714 0.800000 -0.035895 240 140 80
0.485714 0.814286 -0.092689 240 140 80
0.485714 0.828571 -0.010701 240 140 80
0.485714 0.842857 0.028680 240 140 80
0.485714 0.857143 -0.011511 240 140 80
0.485714 0.871429 -0.028888 240 140 80
0.485714 0.885714 0.005330 240 140 80
0.485714 0.900000 -0.010558 240 140 80
0.485714 0.914286 0.080710 240 140 80
0.485714 0.928571 -0.075100 240 140 80
0.485714 0.942857 -0.126040 240 140 80
0.485714 0.957143 -0.005022 240 140 80
0.485714 0.971429 0.016307 240 140 80
0.485714 0.985714 -0.088131 240 140 80
0.485714 1.000000 -0.001542 240 140 80
0.500000 -1.000000 0.025970 240 140 80
0.500000 -0.985714 0.020052 240 140 80
0.500000 -0.971429 0.017980 240 140 80
0.500000 -0.957143 -0.042383 240 140 80
0.500000 -0.942857 -0.083124 240 140 80
0.500000 -0.928571 0.055518 240 140 80
0.500000 -0.914286 -0.019803 240 140 80
0.500000 -0.900000 -0.077936 240 140 80
0.500000 -0.885714 0.090151 240 140 80
0.500000 -0.871429 0.043156 240 140 80
0.500000 -0.857143 -0.161813 240 140 80
0.500000 -0.842857 0.149027 240 140 80
0.500000 -0.828571 0.008896 240 140 80
0.500000 -0.814286 -0.091739 240 140 80
0.500000 -0.800000 0.055719 240 140 80
0.500000 -0.785714 0.019593 240 140 80
0.500000 -0.771429 0.072334 240 140 80
0.500000 -0.757143 0.001443 240 140 80
0.500000 -0.742857 -0.095727 240 140 80
0.500000 -0.728571 -0.008754 240 140 80
0.500000 -0.714286 -0.024350 240 140 80
0.500000 -0.700000 0.017338 240 140 80
0.500000 -0.685714 -0.010263 240 140 80
0.500000 -0.671429 0.032914 240 140 80
0.500000 -0.657143 -0.070100 240 140 80
0.500000 -0.642857 -0.030696 240 140 80
0.500000 -0.628571 -0.029450 240 140 80
0.500000 -0.614286 0.024474 240 140 80
0.500000 -0.600000 -0.098356 240 140 80
0.500000 -0.585714 0.000750 240 140 80
0.500000 -0.571429 0.138290 240 140 80
0.500000 -0.557143 -0.102657 240 140 80
0.500000 -0.542857 0.060169 240 140 80
0.500000 -0.528571 0.006375 240 140 80
0.500000 -0.514286 0.057677 240 140 80
0.500000 -0.500000 0.003748 240 140 80
0.500000 -0.485714 0.015406 240 140 80
0.500000 -0.471429 0.021681 240 140 80
0.500000 -0.457143 0.026941 240 140 80
0.500000 -0.442857 -0.068473 240 140 80
0.500000 -0.428571 -0.007291 240 140 80
0.500000 -0.414286 0.105388 240 140 80
0.500000 -0.400000 0.082474 240 140 80
0.500000 -0.385714 -0.047943 240 140 80
0.500000 -0.371429 -0.054355 240 140 80
0.500000 -0.357143 -0.009283 240 140 80
0.500000 -0.342857 0.061688 240 140 80
0.500000 -0.328571 0.053311 240 140 80
0.500000 -0.314286 -0.033578 240 140 80
0.500000 -0.300000 -0.135669 240 140 80
0.500000 -0.285714 -0.002391 240 140 80
0.500000 -0.271429 -0.094745 240 140 80
0.500000 -0.257143 0.069619 240 140 80
0.500000 -0.242857 0.085720 240 140 80
0.500000 -0.228571 0.039112 240 140 80
0.500000 -0.214286 0.034746 240 140 80
0.500000 -0.200000 0.033036 240 140 80
0.500000 -0.185714 0.106395 240 140 80
0.500000 -0.171429 0.063310 240 140 80
0.500000 -0.157143 0.083514 240 140 80
0.500000 -0.142857 -0.066164 240 140 80
0.500000 -0.128571 -0.029184 240 140 80
0.500000 -0.114286 0.000191 240 140 80
0.500000 -0.100000 -0.127400 240 140 80
0.500000 -0.085714 -0.016245 240 140 80
0.500000 -0.071429 -0.000634 240 140 80
0.500000 -0.057143 -0.003498 240 140 80
0.500000 -0.042857 0.145724 240 140 80
0.500000 -0.028571 -0.011452 240 140 80
0.500000 -0.014286 -0.010791 240 140 80
0.500000 0.000000 -0.006677 240 140 80
0.500000 0.014286 -0.019142 240 140 80
0.500000 0.028571 -0.081781 240 140 80
0.500000 0.042857 0.064992 240 140 80
0.500000 0.057143 0.001630 240 140 80
0.500000 0.071429 0.021319 240 140 80
0.500000 0.085714 0.002362 240 140 80
0.500000 0.100000 -0.044226 240 140 80
0.500000 0.114286 -0.092093 240 140 80
0.500000 0.128571 -0.015929 240 140 80
0.500000 0.142857 0.031163 240 140 80
0.500000 0.157143 -0.006453 240 140 80
0.500000 0.171429 0.042694 240 140 80
0.500000 0.185714 -0.044938 240 140 80
0.500000 0.200000 -0.016690 240 140 80
0.500000 0.214286 0.009040 240 140 80
0.500000 0.228571 -0.005537 240 140 80
0.500000 0.242857 0.010544 240 140 80
0.500000 0.257143 0.083298 240 140 80
0.500000 0.271429 -0.023632 240 140 80
0.500000 0.285714 0.008056 240 140 80
0.500000 0.300000 -0.036949 240 140 80
0.500000 0.314286 0.031751 240 140 80
0.500000 0.328571 0.013334 240 140 80
0.500000 0.342857 -0.042369 240 140 80
0.500000 0.357143 -0.057522 240 140 80
0.500000 0.371429 -0.069133 240 140 80
0.500000 0.385714 -0.015834 240 140 80
0.500000 0.400000 0.009109 240 140 80
0.500000 0.414286 -0.028033 240 140 80
0.500000 0.428571 -0.006249 240 140 80
0.500000 0.442857 0.008161 240 140 80
0.500000 0.457143 0.136257 240 140 80
0.500000 0.471429 0.068208 240 140 80
0.500000 0.485714 0.134581 240 140 80
0.500000 0.500000 0.008212 240 140 80
0.500000 0.514286 0.012809 240 140 80
0.500000 0.528571 0.112511 240 140 80
0.500000 0.542857 0.022287 240 140 80
0.500000 0.557143 0.038024 240 140 80
0.500000 0.571429 -0.029012 240 140 80
0.500000 0.585714 -0.030850 240 140 80
0.500000 0.600000 0.045284 240 140 80
0.500000 0.614286 -0.034112 240 140 80
0.500000 0.628571 -0.038002 240 140 80
0.500000 0.642857 -0.085473 240 140 80
0.500000 0.657143 0.017314 240 140 80
0.500000 0.671429 -0.005051 240 140 80
0.500000 0.685714 0.031835 240 140 80
0.500000 0.700000 -0.049630 240 140 80
0.500000 0.714286 -0.071610 240 140 80
0.500000 0.728571 0.063879 240 140 80
0.500000 0.742857 0.001545 240 140 80
0.500000 0.757143 0.045757 240 140 80
0.500000 0.771429 -0.066258 240 140 80
0.500000 0.785714 -0.074251 240 140 80
0.500000 0.800000 -0.146279 240 140 80
0.500000 0.814286 0.017547 240 140 80
0.500000 0.828571 0.057556 240 140 80
0.500000 0.842857 0.076702 240 140 80
0.500000 0.857143 0.102810 240 140 80
0.500000 0.871429 -0.104579 240 140 80
0.500000 0.885714 -0.062988 240 140 80
0.500000 0.900000 -0.030080 240 140 80
0.500000 0.914286 -0.045650 240 140 80
0.500000 0.928571 -0.011839 240 140 80
0.500000 0.942857 -0.046182 240 140 80
0.500000 0.957143 -0.084248 240 140 80
0.500000 0.971429 -0.002251 240 140 80
0.500000 0.985714 0.007431 240 140 80
0.500000 1.000000 -0.044422 240 140 80
0.514286 -1.000000 0.002061 240 140 80
0.514286 -0.985714 -0.075083 240 140 80
0.514286 -0.971429 -0.018687 240 140 80
0.514286 -0.957143 -0.019315 240 140 80
0.514286 -0.942857 -0.026084 240 140 80
0.514286 -0.928571 -0.004312 240 140 80
0.514286 -0.914286 -0.072776 240 140 80
0.514286 -0.900000 -0.077579 240 140 80
0.514286 -0.885714 -0.047619 240 140 80
0.514286 -0.871429 0.042708 240 140 80
0.514286 -0.857143 -0.054551 240 140 80
0.514286 -0.842857 -0.054006 240 140 80
0.514286 -0.828571 0.114373 240 140 80
0.514286 -0.814286 -0.014746 240 140 80
0.514286 -0.800000 -0.021871 240 140 80
0.514286 -0.785714 -0.051120 240 140 80
0.514286 -0.771429 0.084871 240 140 80
0.514286 -0.757143 0.030622 240 140 80
0.514286 -0.742857 0.015307 240 140 80
0.514286 -0.728571 0.092400 240 140 80
0.514286 -0.714286 -0.068519 240 140 80
0.514286 -0.700000 -0.097385 240 140 80
0.514286 -0.685714 0.064052 240 140 80
0.514286 -0.671429 0.025200 240 140 80
0.514286 -0.657143 -0.029473 240 140 80
0.514286 -0.642857 0.046290 240 140 80
0.514286 -0.628571 -0.005333 240 140 80
0.514286 -0.614286 0.113339 240 140 80
0.514286 -0.600000 -0.072899 240 140 80
0.514286 -0.585714 0.020917 240 140 80
0.514286 -0.571429 0.056511 240 140 80
0.514286 -0.557143 0.051519 240 140 80
0.514286 -0.542857 -0.020679 240 140 80
0.514286 -0.528571 -0.022942 240 140 80
0.514286 -0.514286 -0.024987 240 140 80
0.514286 -0.500000 0.040091 240 140 80
0.514286 -0.485714 -0.023117 240 140 80
0.514286 -0.471429 -0.007922 240 140 80
0.514286 -0.457143 0.059214 240 140 80
0.514286 -0.442857 -0.006345 240 140 80
0.514286 -0.428571 0.014184 240 140 80
0.514286 -0.414286 -0.007140 240 140 80
0.514286 -0.400000 0.000580 240 140 80
0.514286 -0.385714 -0.128637 240 140 80
0.514286 -0.371429 -0.054032 240 140 80
0.514286 -0.357143 0.021419 240 140 80
0.514286 -0.342857 -0.036817 240 140 80
0.514286 -0.328571 -0.035650 240 140 80
0.514286 -0.314286 0.003129 240 140 80
0.514286 -0.300000 0.132809 240 140 80
0.514286 -0.285714 -0.043728 240 140 80
0.514286 -0.271429 -0.055284 240 140 80
0.514286 -0.257143 -0.103488 240 140 80
0.514286 -0.242857 0.026776 240 140 80
0.514286 -0.228571 -0.003208 240 140 80
0.514286 -0.214286 -0.048663 240 140 80
0.514286 -0.200000 -0.023581 240 140 80
0.514286 -0.185714 0.056955 240 140 80
0.514286 -0.171429 0.058799 240 140 80
0.514286 -0.157143 0.021391 240 140 80
0.514286 -0.142857 0.066643 240 140 80
0.514286 -0.128571 0.058763 240 140 80
0.514286 -0.114286 -0.026474 240 140 80
0.514286 -0.100000 0.046249 240 140 80
0.514286 -0.085714 0.009075 240 140 80
0.514286 -0.071429 0.044652 240 140 80
0.514286 -0.057143 0.016093 240 140 80
0.514286 -0.042857 0.123997 240 140 80
0.514286 -0.028571 -0.072427 240 140 80
0.514286 -0.014286 0.021111 240 140 80
0.514286 0.000000 -0.062484 240 140 80
0.514286 0.014286 0.134788 240 140 80
0.514286 0.028571 -0.029829 240 140 80
0.514286 0.042857 -0.021276 240 140 80
0.514286 0.057143 -0.001171 240 140 80
0.514286 0.071429 -0.002505 240 140 80
0.514286 0.085714 0.098539 240 140 80
0.514286 0.100000 -0.003022 240 140 80
0.514286 0.114286 0.014407 240 140 80
0.514286 0.128571 0.061883 240 140 80
0.514286 0.142857 0.087144 240 140 80
0.514286 0.157143 -0.055710 240 140 80
0.514286 0.171429 0.017551 240 140 80
0.514286 0.185714 -0.077061 240 140 80
0.514286 0.200000 0.028458 240 140 80
0.514286 0.214286 0.082343 240 140 80
0.514286 0.228571 -0.030213 240 140 80
0.514286 0.242857 -0.016231 240 140 80
0.514286 0.257143 0.068681 240 140 80
0.514286 0.271429 0.025584 240 140 80
0.514286 0.285714 0.046443 240 140 80
0.514286 0.300000 -0.026559 240 140 80
0.514286 0.314286 -0.018238 240 140 80
0.514286 0.328571 -0.021442 240 140 80
0.514286 0.342857 0.090460 240 140 80
0.514286 0.357143 -0.086850 240 140 80
0.514286 0.371429 -0.029902 240 140 80
0.514286 0.385714 0.090762 240 140 80
0.514286 0.400000 -0.004078 240 140 80
0.514286 0.414286 -0.063632 240 140 80
0.514286 0.428571 0.013573 240 140 80
0.514286 0.442857 -0.012661 240 140 80
0.514286 0.457143 -0.007069 240 140 80
0.514286 0.471429 0.029080 240 140 80
0.514286 0.485714 0.045556 240 140 80
0.514286 0.500000 -0.087042 240 140 80
0.514286 0.514286 0.011509 240 140 80
0.514286 0.528571 0.087318 240 140 80
0.514286 0.542857 -0.077493 240 140 80
0.514286 0.557143 -0.005568 240 140 80
0.514286 0.571429 -0.067117 240 140 80
0.514286 0.585714 0.038857 240 140 80
0.514286 0.600000 -0.048915 240 140 80
0.514286 0.614286 -0.019395 240 140 80
0.514286 0.628571 -0.023996 240 140 80
0.514286 0.642857 0.026585 240 140 80
0.514286 0.657143 -0.075635 240 140 80
0.514286 0.671429 -0.081510 240 140 80
0.514286 0.685714 0.010790 240 140 80
0.514286 0.700000 0.079251 240 140 80
0.514286 0.714286 -0.029249 240 140 80
0.514286 0.728571 0.024173 240 140 80
0.514286 0.742857 0.015216 240 140 80
0.514286 0.757143 0.006322 240 140 80
0.514286 0.771429 -0.001270 240 140 80
0.514286 0.785714 -0.032148 240 140 80
0.514286 0.800000 -0.014241 240 140 80
0.514286 0.814286 0.070245 240 140 80
0.514286 0.828571 0.025607 240 140 80
0.514286 0.842857 0.074851 240 140 80
0.514286 0.857143 -0.042090 240 140 80
0.514286 0.871429 0.006935 240 140 80
0.514286 0.885714 -0.037224 240 140 80
0.514286 0.900000 -0.077234 240 140 80
0.514286 0.914286 0.051702 240 140 80
0.514286 0.928571 -0.016489 240 140 80
0.514286 0.942857 0.013777 240 140 80
0.514286 0.957143 -0.082720 240 140 80
0.514286 0.971429 -0.014745 240 140 80
0.514286 0.985714 -0.007113 240 140 80
0.514286 1.000000 -0.022561 240 140 80
0.528571 -1.000000 0.059384 240 140 80
0.528571 -0.985714 0.026282 240 140 80
0.528571 -0.971429 0.007784 240 140 80
0.528571 -0.957143 0.013072 240 140 80
0.528571 -0.942857 -0.026028 240 140 80
0.528571 -0.928571 -0.041144 240 140 80
0.528571 -0.914286 -0.016391 240 140 80
0.528571 -0.900000 -0.059007 240 140 80
0.528571 -0.885714 -0.009902 240 140 80
0.528571 -0.871429 -0.006694 240 140 80
0.528571 -0.857143 0.065961 240 140 80
0.528571 -0.842857 -0.025264 240 140 80
0.528571 -0.828571 0.142116 240 140 80
0.528571 -0.814286 -0.030292 240 140 80
0.528571 -0.800000 0.007745 240 140 80
0.528571 -0.785714 -0.001789 240 140 80
0.528571 -0.771429 -0.035900 240 140 80
0.528571 -0.757143 -0.003840 240 140 80
0.528571 -0.742857 -0.103580 240 140 80
0.528571 -0.728571 0.064175 240 140 80
0.528571 -0.714286 -0.033836 240 140 80
0.528571 -0.700000 -0.001859 240 140 80
0.528571 -0.685714 -0.106231 240 140 80
0.528571 -0.671429 0.032472 240 140 80
0.528571 -0.657143 -0.075103 240 140 80
0.528571 -0.642857 0.078053 240 140 80
0.528571 -0.628571 -0.061191 240 140 80
0.528571 -0.614286 -0.042514 240 140 80
0.528571 -0.600000 0.038807 240 140 80
0.528571 -0.585714 0.073496 240 140 80
0.528571 -0.571429 -0.115981 240 140 80
0.528571 -0.557143 -0.097534 240 140 80
0.528571 -0.542857 0.094671 240 140 80
0.528571 -0.528571 0.025183 240 140 80
0.528571 -0.514286 -0.089074 240 140 80
0.528571 -0.500000 -0.025414 240 140 80
0.528571 -0.485714 0.040886 240 140 80
0.528571 -0.471429 -0.022693 240 140 80
0.528571 -0.457143 0.088478 240 140 80
0.528571 -0.442857 -0.041450 240 140 80
0.528571 -0.428571 0.009834 240 140 80
0.528571 -0.414286 0.066238 240 140 80
0.528571 -0.400000 0.086949 240 140 80
0.528571 -0.385714 0.013382 240 140 80
0.528571 -0.371429 0.034218 240 140 80
0.528571 -0.357143 -0.019702 240 140 80
0.528571 -0.342857 -0.003921 240 140 80
0.528571 -0.328571 -0.033399 240 140 80
0.528571 -0.314286 0.022812 240 140 80
0.528571 -0.300000 0.048203 240 140 80
0.528571 -0.285714 -0.059101 240 140 80
0.528571 -0.271429 -0.067396 240 140 80
0.528571 -0.257143 0.002664 240 140 80
0.528571 -0.242857 0.114834 240 140 80
0.528571 -0.228571 0.013306 240 140 80
0.528571 -0.214286 0.007202 240 140 80
0.528571 -0.200000 -0.002609 240 140 80
0.528571 -0.185714 -0.096768 240 140 80
0.528571 -0.171429 -0.041823 240 140 80
0.528571 -0.157143 0.086451 240 140 80
0.528571 -0.142857 -0.123676 240 140 80
0.528571 -0.128571 0.102986 240 140 80
0.528571 -0.114286 -0.070595 240 140 80
0.528571 -0.100000 0.116977 240 140 80
0.528571 -0.085714 0.154333 240 140 80
0.528571 -0.071429 0.085851 240 140 80
0.528571 -0.057143 -0.008233 240 140 80
0.528571 -0.042857 0.033575 240 140 80
0.528571 -0.028571 -0.032405 240 140 80
0.528571 -0.014286 -0.026254 240 140 80
0.528571 0.000000 0.011931 240 140 80
0.528571 0.014286 -0.181392 240 140 80
0.528571 0.028571 0.032912 240 140 80
0.528571 0.042857 -0.018457 240 140 80
0.528571 0.057143 -0.063960 240 140 80
0.528571 0.071429 -0.016476 240 140 80
0.528571 0.085714 0.038002 240 140 80
0.528571 0.100000 -0.044785 240 140 80
0.528571 0.114286 0.021057 240 140 80
0.528571 0.128571 -0.077906 240 140 80
0.528571 0.142857 0.005416 240 140 80
0.528571 0.157143 -0.066712 240 140 80
0.528571 0.171429 0.045065 240 140 80
0.528571 0.185714 -0.060376 240 140 80
0.528571 0.200000 0.036280 240 140 80
0.528571 0.214286 -0.114989 240 140 80
0.528571 0.228571 0.010258 240 140 80
0.528571 0.242857 0.062774 240 140 80
0.528571 0.257143 -0.048875 240 140 80
0.528571 0.271429 0.002667 240 140 80
0.528571 0.285714 -0.050813 240 140 80
0.528571 0.300000 0.027149 240 140 80
0.528571 0.314286 0.044522 240 140 80
0.528571 0.328571 0.065612 240 140 80
0.528571 0.342857 0.078345 240 140 80
0.528571 0.357143 0.074408 240 140 80
0.528571 0.371429 -0.043156 240 140 80
0.528571 0.385714 0.006208 240 140 80
0.528571 0.400000 0.031159 240 140 80
0.528571 0.414286 0.010454 240 140 80
0.528571 0.428571 -0.077677 240 140 80
0.528571 0.442857 0.115919 240 140 80
0.528571 0.457143 0.150440 240 140 80
0.528571 0.471429 0.002998 240 140 80
0.528571 0.485714 -0.153838 240 140 80
0.528571 0.500000 0.104456 240 140 80
0.528571 0.514286 -0.010983 240 140 80
0.528571 0.528571 0.129747 240 140 80
0.528571 0.542857 -0.061944 240 140 80
0.528571 0.557143 0.029783 240 140 80
0.528571 0.571429 0.046674 240 140 80
0.528571 0.585714 -0.083204 240 140 80
0.528571 0.600000 -0.019777 240 140 80
0.528571 0.614286 0.027740 240 140 80
0.528571 0.628571 0.038903 240 140 80
0.528571 0.642857 0.021816 240 140 80
0.528571 0.657143 -0.154931 240 140 80
0.528571 0.671429 -0.137702 240 140 80
0.528571 0.685714 0.021439 240 140 80
